# .PCD v.7 - Point Cloud Data file format
FIELDS x y z rgb
SIZE 4 4 4 4
TYPE F F F F
COUNT 1 1 1 1
WIDTH 1144
HEIGHT 1
VIEWPOINT 0 0 0 1 0 0 0
POINTS 1144
DATA ascii
-0.021228 -0.055633 0.0088301 2.346361e-38
-0.017358 -0.057439 0.0087784 2.346361e-38
-0.013332 -0.057583 0.0097184 2.346361e-38
-0.009546 -0.058409 0.0092058 2.346361e-38
-0.0049542 -0.059483 0.0087577 2.346361e-38
-0.0008745 -0.059799 0.0085987 2.346361e-38
0.0022699 -0.060052 0.0087267 2.346361e-38
0.0065651 -0.058987 0.0084911 2.346361e-38
0.01024 -0.059142 0.0096112 2.346361e-38
0.014578 -0.058173 0.0092784 2.346361e-38
0.018574 -0.057749 0.0095948 2.346361e-38
0.021527 -0.056031 0.0092893 2.346361e-38
0.026018 -0.053997 0.0090696 2.346361e-38
0.029528 -0.052426 0.0095805 2.346361e-38
0.032646 -0.049162 0.0094814 2.346361e-38
0.03723 -0.046846 0.0093897 2.346361e-38
0.039186 -0.044558 0.0090486 2.346361e-38
0.041987 -0.042194 0.0086532 2.346361e-38
0.045098 -0.039302 0.0085944 2.346361e-38
0.047849 -0.035952 0.0088133 2.346361e-38
0.049383 -0.032583 0.0090074 2.346361e-38
0.052442 -0.028967 0.008994 2.346361e-38
0.053811 -0.025437 0.0090723 2.346361e-38
0.055778 -0.022002 0.0095354 2.346361e-38
0.056912 -0.016657 0.0099708 2.346361e-38
0.058582 -0.013876 0.0099847 2.346361e-38
0.059245 -0.010312 0.0093364 2.346361e-38
0.058654 -0.0066921 0.0085008 2.346361e-38
0.05957 -0.0023872 0.0086747 2.346361e-38
0.056692 0.0010029 0.01106 2.346361e-38
0.056557 0.0036646 0.010998 2.346361e-38
0.056569 0.0067761 0.010444 2.346361e-38
0.055711 0.01112 0.010218 2.346361e-38
0.054656 0.015061 0.011336 2.346361e-38
0.053706 0.019022 0.011332 2.346361e-38
0.052292 0.022005 0.011022 2.346361e-38
0.05155 0.025504 0.010665 2.346361e-38
0.048857 0.029006 0.011304 2.346361e-38
0.047452 0.033077 0.011062 2.346361e-38
0.044405 0.035786 0.0098844 2.346361e-38
0.041961 0.038872 0.011183 2.346361e-38
0.039587 0.042114 0.010577 2.346361e-38
0.035904 0.044583 0.011259 2.346361e-38
0.033955 0.045742 0.010233 2.346361e-38
0.030633 0.047925 0.012058 2.346361e-38
0.027037 0.050969 0.011656 2.346361e-38
0.023164 0.052339 0.011768 2.346361e-38
0.019602 0.054149 0.010164 2.346361e-38
0.015539 0.054976 0.010771 2.346361e-38
0.0116 0.056039 0.011755 2.346361e-38
0.007537 0.057408 0.010872 2.346361e-38
0.0037586 0.057217 0.011649 2.346361e-38
0.0003209 0.05655 0.011257 2.346361e-38
-0.0026025 0.056806 0.012531 2.346361e-38
-0.0075757 0.057263 0.010511 2.346361e-38
-0.011099 0.056433 0.010834 2.346361e-38
-0.015203 0.055206 0.011245 2.346361e-38
-0.018889 0.054218 0.011957 2.346361e-38
-0.022003 0.052909 0.011843 2.346361e-38
-0.025781 0.051122 0.011221 2.346361e-38
-0.028412 0.049573 0.011273 2.346361e-38
-0.033092 0.047163 0.010714 2.346361e-38
-0.034415 0.044644 0.010882 2.346361e-38
-0.039256 0.04121 0.011877 2.346361e-38
-0.041371 0.040844 0.011425 2.346361e-38
-0.044592 0.036039 0.011399 2.346361e-38
-0.046841 0.033825 0.010398 2.346361e-38
-0.047976 0.029818 0.011805 2.346361e-38
-0.050183 0.027057 0.011278 2.346361e-38
-0.051601 0.023973 0.012305 2.346361e-38
-0.052778 0.020524 0.011178 2.346361e-38
-0.054515 0.016364 0.011161 2.346361e-38
-0.055264 0.011839 0.011239 2.346361e-38
-0.056171 0.0090847 0.011316 2.346361e-38
-0.057198 0.005198 0.011262 2.346361e-38
-0.056807 -8.7153e-05 0.011058 2.346361e-38
-0.057377 -0.0030814 0.012043 2.346361e-38
-0.057155 -0.0067282 0.01066 2.346361e-38
-0.055455 -0.011013 0.011045 2.346361e-38
-0.055526 -0.014334 0.012001 2.346361e-38
-0.053469 -0.017129 0.011429 2.346361e-38
-0.052895 -0.021783 0.010491 2.346361e-38
-0.051191 -0.025577 0.010232 2.346361e-38
-0.04852 -0.029058 0.010687 2.346361e-38
-0.047402 -0.032948 0.010678 2.346361e-38
-0.045864 -0.035433 0.012029 2.346361e-38
-0.042477 -0.038504 0.010531 2.346361e-38
-0.040292 -0.041606 0.011254 2.346361e-38
-0.037504 -0.043288 0.011107 2.346361e-38
-0.033097 -0.045704 0.010004 2.346361e-38
-0.030362 -0.048103 0.011551 2.346361e-38
-0.027611 -0.050316 0.010902 2.346361e-38
-0.023926 -0.051513 0.011837 2.346361e-38
-0.019732 -0.052873 0.010595 2.346361e-38
-0.016445 -0.054696 0.011656 2.346361e-38
-0.013413 -0.057257 0.010782 2.346361e-38
-0.0098277 -0.055524 0.011009 2.346361e-38
-0.005165 -0.055932 0.011294 2.346361e-38
-0.00044564 -0.05812 0.010019 2.346361e-38
0.0030612 -0.056015 0.011982 2.346361e-38
0.0054443 -0.056372 0.010954 2.346361e-38
0.010218 -0.056263 0.010944 2.346361e-38
0.014395 -0.055591 0.010458 2.346361e-38
0.017685 -0.054202 0.011499 2.346361e-38
0.021299 -0.053596 0.011598 2.346361e-38
0.024929 -0.05094 0.010931 2.346361e-38
0.027294 -0.049282 0.010992 2.346361e-38
0.03205 -0.048469 0.01152 2.346361e-38
0.034131 -0.045678 0.011719 2.346361e-38
0.037976 -0.042828 0.011225 2.346361e-38
0.040898 -0.03995 0.011781 2.346361e-38
0.043856 -0.037556 0.01114 2.346361e-38
0.045094 -0.034643 0.011096 2.346361e-38
0.048239 -0.031282 0.011561 2.346361e-38
0.049303 -0.027142 0.01123 2.346361e-38
0.051311 -0.024311 0.011907 2.346361e-38
0.05341 -0.021687 0.011464 2.346361e-38
0.055178 -0.016891 0.011304 2.346361e-38
0.055141 -0.013414 0.011385 2.346361e-38
0.056498 -0.0095446 0.010703 2.346361e-38
0.057109 -0.0064604 0.011215 2.346361e-38
0.057024 -0.0023485 0.011651 2.346361e-38
0.054074 0.00021318 0.012879 2.346361e-38
0.053982 0.0043706 0.0128 2.346361e-38
0.053501 0.0060122 0.012771 2.346361e-38
0.053399 0.011072 0.01226 2.346361e-38
0.052133 0.013873 0.012296 2.346361e-38
0.051586 0.018742 0.01276 2.346361e-38
0.050336 0.021517 0.012903 2.346361e-38
0.047856 0.024687 0.013883 2.346361e-38
0.046047 0.028613 0.012147 2.346361e-38
0.044676 0.030795 0.012313 2.346361e-38
0.041788 0.033878 0.01262 2.346361e-38
0.040254 0.036912 0.013062 2.346361e-38
0.036636 0.038505 0.011724 2.346361e-38
0.034632 0.041506 0.012833 2.346361e-38
0.032168 0.044666 0.012685 2.346361e-38
0.028199 0.045223 0.012944 2.346361e-38
0.025148 0.047903 0.012357 2.346361e-38
0.022486 0.048556 0.01247 2.346361e-38
0.018813 0.050143 0.012982 2.346361e-38
0.015035 0.052608 0.012069 2.346361e-38
0.010779 0.052289 0.012886 2.346361e-38
0.0087116 0.053105 0.013187 2.346361e-38
0.0050673 0.053387 0.012508 2.346361e-38
0.0011469 0.054649 0.012613 2.346361e-38
-0.0037152 0.053596 0.012595 2.346361e-38
-0.0069089 0.05329 0.012703 2.346361e-38
-0.010737 0.05257 0.012599 2.346361e-38
-0.012405 0.0516 0.012447 2.346361e-38
-0.017855 0.05198 0.01245 2.346361e-38
-0.02157 0.050618 0.012221 2.346361e-38
-0.024577 0.048087 0.011576 2.346361e-38
-0.027414 0.04631 0.013245 2.346361e-38
-0.030561 0.045463 0.012143 2.346361e-38
-0.033401 0.042415 0.011879 2.346361e-38
-0.036619 0.0409 0.012912 2.346361e-38
-0.040186 0.037362 0.01295 2.346361e-38
-0.04204 0.034957 0.012383 2.346361e-38
-0.043503 0.031786 0.012742 2.346361e-38
-0.046204 0.029374 0.013202 2.346361e-38
-0.048493 0.02503 0.013033 2.346361e-38
-0.049035 0.021575 0.01247 2.346361e-38
-0.050954 0.018236 0.013033 2.346361e-38
-0.050401 0.015508 0.013067 2.346361e-38
-0.053014 0.011412 0.011903 2.346361e-38
-0.053022 0.0075119 0.013225 2.346361e-38
-0.053774 0.0044348 0.012536 2.346361e-38
-0.054257 0.00033063 0.012205 2.346361e-38
-0.05431 -0.002989 0.012712 2.346361e-38
-0.053012 -0.0059501 0.012673 2.346361e-38
-0.052582 -0.0097166 0.01302 2.346361e-38
-0.052534 -0.01425 0.011332 2.346361e-38
-0.050655 -0.017232 0.012355 2.346361e-38
-0.049648 -0.020697 0.011812 2.346361e-38
-0.048073 -0.024772 0.012275 2.346361e-38
-0.046228 -0.027868 0.01172 2.346361e-38
-0.044327 -0.02947 0.012836 2.346361e-38
-0.042385 -0.033591 0.012344 2.346361e-38
-0.038969 -0.036018 0.012659 2.346361e-38
-0.038264 -0.038308 0.012375 2.346361e-38
-0.035512 -0.041672 0.01333 2.346361e-38
-0.032514 -0.043462 0.01259 2.346361e-38
-0.029167 -0.045167 0.012084 2.346361e-38
-0.026236 -0.048054 0.013103 2.346361e-38
-0.022111 -0.049176 0.011913 2.346361e-38
-0.019567 -0.051025 0.01199 2.346361e-38
-0.0162 -0.05163 0.012356 2.346361e-38
-0.012578 -0.052568 0.012252 2.346361e-38
-0.0094217 -0.053288 0.012234 2.346361e-38
-0.0048445 -0.053487 0.011812 2.346361e-38
-0.001355 -0.053922 0.013151 2.346361e-38
0.0028501 -0.054344 0.013063 2.346361e-38
0.0061827 -0.052529 0.01299 2.346361e-38
0.0094111 -0.052824 0.013416 2.346361e-38
0.012707 -0.051774 0.012932 2.346361e-38
0.016388 -0.050916 0.012715 2.346361e-38
0.020001 -0.049793 0.011742 2.346361e-38
0.023603 -0.049003 0.012932 2.346361e-38
0.027133 -0.046116 0.012316 2.346361e-38
0.029764 -0.044334 0.011806 2.346361e-38
0.033242 -0.043078 0.012297 2.346361e-38
0.035823 -0.04113 0.011747 2.346361e-38
0.038263 -0.039087 0.012271 2.346361e-38
0.041594 -0.036059 0.012517 2.346361e-38
0.043057 -0.03324 0.01333 2.346361e-38
0.045553 -0.03099 0.013404 2.346361e-38
0.047298 -0.026593 0.013272 2.346361e-38
0.048084 -0.022867 0.012162 2.346361e-38
0.050027 -0.019564 0.012853 2.346361e-38
0.051553 -0.016947 0.011955 2.346361e-38
0.052627 -0.014036 0.012091 2.346361e-38
0.053283 -0.0097287 0.012505 2.346361e-38
0.053004 -0.0050085 0.012256 2.346361e-38
0.053889 -0.0024342 0.012178 2.346361e-38
0.050761 -0.00024833 0.013667 2.346361e-38
0.050631 0.0042549 0.013174 2.346361e-38
0.050225 0.0068313 0.012817 2.346361e-38
0.048878 0.010703 0.013824 2.346361e-38
0.049117 0.013354 0.013388 2.346361e-38
0.047139 0.017378 0.013243 2.346361e-38
0.046459 0.020482 0.013327 2.346361e-38
0.045598 0.023413 0.012357 2.346361e-38
0.043708 0.026013 0.013027 2.346361e-38
0.041292 0.028816 0.013052 2.346361e-38
0.039767 0.03124 0.013413 2.346361e-38
0.037634 0.03484 0.014353 2.346361e-38
0.034777 0.036784 0.013262 2.346361e-38
0.032585 0.039338 0.012331 2.346361e-38
0.029512 0.04129 0.013313 2.346361e-38
0.026298 0.042884 0.012633 2.346361e-38
0.022995 0.045532 0.013255 2.346361e-38
0.020863 0.046781 0.012397 2.346361e-38
0.0171 0.047396 0.013382 2.346361e-38
0.014547 0.049507 0.013218 2.346361e-38
0.010947 0.049394 0.013302 2.346361e-38
0.0064737 0.050171 0.012827 2.346361e-38
0.0036387 0.050534 0.012895 2.346361e-38
0.0015169 0.05035 0.01345 2.346361e-38
-0.0040356 0.050762 0.013394 2.346361e-38
-0.0059761 0.04995 0.013777 2.346361e-38
-0.0095141 0.050171 0.01318 2.346361e-38
-0.012869 0.04897 0.013312 2.346361e-38
-0.015977 0.048832 0.013693 2.346361e-38
-0.020106 0.04721 0.013058 2.346361e-38
-0.023239 0.046351 0.01319 2.346361e-38
-0.025386 0.043806 0.013831 2.346361e-38
-0.028281 0.040801 0.013485 2.346361e-38
-0.032278 0.040464 0.013522 2.346361e-38
-0.034555 0.037048 0.013331 2.346361e-38
-0.036734 0.034773 0.013855 2.346361e-38
-0.039162 0.032753 0.01302 2.346361e-38
-0.04176 0.029424 0.013106 2.346361e-38
-0.043519 0.026705 0.01223 2.346361e-38
-0.045604 0.023164 0.013835 2.346361e-38
-0.044895 0.021709 0.013391 2.346361e-38
-0.047569 0.017956 0.013254 2.346361e-38
-0.048287 0.014637 0.012789 2.346361e-38
-0.049891 0.01116 0.012737 2.346361e-38
-0.050085 0.008071 0.012279 2.346361e-38
-0.050221 0.0052489 0.013121 2.346361e-38
-0.050757 0.001187 0.012615 2.346361e-38
-0.049748 -0.00305 0.012568 2.346361e-38
-0.051222 -0.0062831 0.012407 2.346361e-38
-0.048959 -0.0091203 0.013043 2.346361e-38
-0.048974 -0.012918 0.013144 2.346361e-38
-0.048026 -0.015747 0.013438 2.346361e-38
-0.047225 -0.019512 0.013081 2.346361e-38
-0.045611 -0.022145 0.013006 2.346361e-38
-0.044037 -0.024973 0.013029 2.346361e-38
-0.041904 -0.027988 0.013561 2.346361e-38
-0.039423 -0.031364 0.013256 2.346361e-38
-0.037071 -0.034481 0.012646 2.346361e-38
-0.03517 -0.036267 0.013053 2.346361e-38
-0.033902 -0.039614 0.013671 2.346361e-38
-0.030076 -0.041055 0.013537 2.346361e-38
-0.027335 -0.043125 0.013703 2.346361e-38
-0.025052 -0.044729 0.012913 2.346361e-38
-0.02145 -0.046386 0.012835 2.346361e-38
-0.018961 -0.046799 0.01359 2.346361e-38
-0.014997 -0.04855 0.012341 2.346361e-38
-0.0121 -0.049096 0.013391 2.346361e-38
-0.0086515 -0.050144 0.01232 2.346361e-38
-0.0043914 -0.049416 0.012898 2.346361e-38
-0.0027612 -0.050739 0.012654 2.346361e-38
0.0021437 -0.050667 0.012627 2.346361e-38
0.0055351 -0.051018 0.013284 2.346361e-38
0.0093487 -0.049634 0.014133 2.346361e-38
0.0129 -0.049459 0.013541 2.346361e-38
0.015418 -0.048509 0.013159 2.346361e-38
0.018136 -0.046669 0.012626 2.346361e-38
0.022511 -0.045968 0.011996 2.346361e-38
0.024038 -0.043656 0.013607 2.346361e-38
0.027843 -0.042129 0.012697 2.346361e-38
0.030366 -0.040164 0.013737 2.346361e-38
0.033972 -0.037649 0.013866 2.346361e-38
0.036391 -0.035792 0.013475 2.346361e-38
0.038523 -0.032382 0.012645 2.346361e-38
0.040342 -0.031225 0.013476 2.346361e-38
0.042172 -0.027646 0.013728 2.346361e-38
0.044391 -0.025133 0.013148 2.346361e-38
0.046689 -0.022843 0.013505 2.346361e-38
0.047584 -0.018867 0.012069 2.346361e-38
0.048579 -0.014692 0.013806 2.346361e-38
0.048697 -0.010978 0.012679 2.346361e-38
0.049542 -0.0084815 0.01276 2.346361e-38
0.050742 -0.0053803 0.012859 2.346361e-38
0.051252 -0.0019953 0.013223 2.346361e-38
0.047425 -0.00022589 0.012682 2.346361e-38
0.047606 0.0020929 0.012719 2.346361e-38
0.047081 0.0063494 0.01259 2.346361e-38
0.047077 0.0099397 0.012766 2.346361e-38
0.045635 0.013411 0.012525 2.346361e-38
0.043951 0.016016 0.013626 2.346361e-38
0.043172 0.019304 0.012873 2.346361e-38
0.041457 0.021298 0.013309 2.346361e-38
0.040302 0.02403 0.01367 2.346361e-38
0.038643 0.02699 0.012776 2.346361e-38
0.037288 0.029808 0.013183 2.346361e-38
0.035732 0.032276 0.013714 2.346361e-38
0.032918 0.033681 0.012735 2.346361e-38
0.031008 0.037265 0.012036 2.346361e-38
0.02742 0.037684 0.013125 2.346361e-38
0.024136 0.040434 0.012509 2.346361e-38
0.021015 0.042016 0.012982 2.346361e-38
0.018829 0.043144 0.013 2.346361e-38
0.015958 0.043892 0.012115 2.346361e-38
0.01331 0.045258 0.012508 2.346361e-38
0.010412 0.045706 0.01325 2.346361e-38
0.0071442 0.04734 0.013329 2.346361e-38
0.0036167 0.048288 0.013103 2.346361e-38
-0.00023488 0.047832 0.013064 2.346361e-38
-0.0029202 0.047799 0.013561 2.346361e-38
-0.0060605 0.046623 0.012949 2.346361e-38
-0.0088314 0.046536 0.012223 2.346361e-38
-0.012066 0.045121 0.012488 2.346361e-38
-0.014656 0.044785 0.012937 2.346361e-38
-0.018205 0.04343 0.013826 2.346361e-38
-0.020392 0.042245 0.013533 2.346361e-38
-0.02374 0.040431 0.013046 2.346361e-38
-0.027524 0.039441 0.012641 2.346361e-38
-0.028326 0.037603 0.012977 2.346361e-38
-0.032157 0.035182 0.011993 2.346361e-38
-0.034271 0.032904 0.012587 2.346361e-38
-0.035853 0.029742 0.012861 2.346361e-38
-0.038518 0.028183 0.013047 2.346361e-38
-0.040532 0.025589 0.012989 2.346361e-38
-0.042598 0.023895 0.012184 2.346361e-38
-0.042542 0.019018 0.013175 2.346361e-38
-0.04504 0.01588 0.012882 2.346361e-38
-0.045987 0.013046 0.013427 2.346361e-38
-0.046348 0.0099914 0.013542 2.346361e-38
-0.047535 0.0072991 0.013119 2.346361e-38
-0.047189 0.0044975 0.012967 2.346361e-38
-0.047719 0.0014712 0.012999 2.346361e-38
-0.047526 -0.0024803 0.012723 2.346361e-38
-0.048132 -0.0057253 0.012751 2.346361e-38
-0.047862 -0.0097945 0.013133 2.346361e-38
-0.045355 -0.012111 0.012737 2.346361e-38
-0.04504 -0.015635 0.012202 2.346361e-38
-0.043352 -0.018643 0.0126 2.346361e-38
-0.042265 -0.020895 0.013605 2.346361e-38
-0.041077 -0.024011 0.012835 2.346361e-38
-0.039926 -0.027279 0.01254 2.346361e-38
-0.037471 -0.028929 0.013163 2.346361e-38
-0.035298 -0.031649 0.012847 2.346361e-38
-0.032809 -0.034185 0.012534 2.346361e-38
-0.031466 -0.036059 0.013073 2.346361e-38
-0.028411 -0.038276 0.012817 2.346361e-38
-0.025291 -0.040674 0.0135 2.346361e-38
-0.022697 -0.041548 0.012227 2.346361e-38
-0.019999 -0.043766 0.012172 2.346361e-38
-0.018076 -0.044658 0.013822 2.346361e-38
-0.014385 -0.044971 0.012364 2.346361e-38
-0.010525 -0.046028 0.012739 2.346361e-38
-0.0068725 -0.047208 0.013337 2.346361e-38
-0.0045344 -0.048195 0.012945 2.346361e-38
-0.0016838 -0.047845 0.013277 2.346361e-38
0.0023618 -0.048733 0.012505 2.346361e-38
0.0052991 -0.047316 0.01261 2.346361e-38
0.0085004 -0.047896 0.012373 2.346361e-38
0.011058 -0.046571 0.013998 2.346361e-38
0.013906 -0.045398 0.013171 2.346361e-38
0.018226 -0.044489 0.012693 2.346361e-38
0.020739 -0.042845 0.013604 2.346361e-38
0.023755 -0.040916 0.013434 2.346361e-38
0.026607 -0.039157 0.012928 2.346361e-38
0.028879 -0.037341 0.012907 2.346361e-38
0.031157 -0.036379 0.012952 2.346361e-38
0.033722 -0.033276 0.013235 2.346361e-38
0.035547 -0.030122 0.012756 2.346361e-38
0.037711 -0.028711 0.012434 2.346361e-38
0.039611 -0.02507 0.014126 2.346361e-38
0.041582 -0.022883 0.01305 2.346361e-38
0.041848 -0.02005 0.013513 2.346361e-38
0.044985 -0.016877 0.013449 2.346361e-38
0.045602 -0.013582 0.012644 2.346361e-38
0.04699 -0.011742 0.013148 2.346361e-38
0.046823 -0.008169 0.012944 2.346361e-38
0.047737 -0.0048178 0.01303 2.346361e-38
0.047424 -0.00040522 0.011819 2.346361e-38
0.043586 0.00084839 0.011705 2.346361e-38
0.044426 0.003102 0.012152 2.346361e-38
0.04395 0.0064427 0.011751 2.346361e-38
0.043677 0.0095543 0.011847 2.346361e-38
0.042401 0.012408 0.012031 2.346361e-38
0.04294 0.015591 0.012874 2.346361e-38
0.040382 0.01656 0.012131 2.346361e-38
0.039646 0.020735 0.012822 2.346361e-38
0.037483 0.022639 0.011909 2.346361e-38
0.036661 0.025377 0.012045 2.346361e-38
0.034028 0.028789 0.012409 2.346361e-38
0.032922 0.030758 0.012084 2.346361e-38
0.029577 0.03151 0.012197 2.346361e-38
0.028352 0.034044 0.012429 2.346361e-38
0.026445 0.037078 0.011983 2.346361e-38
0.023241 0.038139 0.01232 2.346361e-38
0.020911 0.03877 0.011698 2.346361e-38
0.017466 0.040529 0.012473 2.346361e-38
0.015311 0.041282 0.012304 2.346361e-38
0.012 0.043088 0.011905 2.346361e-38
0.0096803 0.043924 0.012205 2.346361e-38
0.0068938 0.044219 0.011332 2.346361e-38
0.0027875 0.04483 0.012341 2.346361e-38
0.00024814 0.044009 0.01162 2.346361e-38
-0.0029699 0.043854 0.0114 2.346361e-38
-0.0053838 0.044131 0.011441 2.346361e-38
-0.009145 0.042665 0.011667 2.346361e-38
-0.012304 0.042323 0.011403 2.346361e-38
-0.014943 0.041901 0.011814 2.346361e-38
-0.016785 0.041967 0.011303 2.346361e-38
-0.019602 0.039632 0.012722 2.346361e-38
-0.022998 0.038131 0.011745 2.346361e-38
-0.024541 0.036557 0.012672 2.346361e-38
-0.027431 0.033831 0.011514 2.346361e-38
-0.02931 0.033264 0.012215 2.346361e-38
-0.031654 0.031158 0.012607 2.346361e-38
-0.03367 0.028634 0.011186 2.346361e-38
-0.035625 0.025578 0.011499 2.346361e-38
-0.03789 0.023805 0.011878 2.346361e-38
-0.038719 0.0202 0.011628 2.346361e-38
-0.040709 0.018208 0.011856 2.346361e-38
-0.042411 0.015888 0.012535 2.346361e-38
-0.042747 0.013144 0.012028 2.346361e-38
-0.042941 0.0092319 0.011305 2.346361e-38
-0.044376 0.006865 0.011419 2.346361e-38
-0.044479 0.0046544 0.011476 2.346361e-38
-0.044347 -0.00018277 0.012089 2.346361e-38
-0.044131 -0.0027758 0.011246 2.346361e-38
-0.044515 -0.005705 0.01166 2.346361e-38
-0.044617 -0.0083147 0.011723 2.346361e-38
-0.043185 -0.011255 0.012312 2.346361e-38
-0.042256 -0.013527 0.010784 2.346361e-38
-0.041083 -0.016576 0.011991 2.346361e-38
-0.040089 -0.019712 0.012142 2.346361e-38
-0.037961 -0.023012 0.012421 2.346361e-38
-0.03662 -0.024291 0.012177 2.346361e-38
-0.034983 -0.027171 0.012836 2.346361e-38
-0.033472 -0.029838 0.012251 2.346361e-38
-0.030891 -0.030417 0.011558 2.346361e-38
-0.029177 -0.033579 0.012799 2.346361e-38
-0.026598 -0.035389 0.01183 2.346361e-38
-0.023104 -0.037317 0.012046 2.346361e-38
-0.021999 -0.03886 0.011913 2.346361e-38
-0.019077 -0.040625 0.011438 2.346361e-38
-0.015674 -0.041105 0.01156 2.346361e-38
-0.013539 -0.043059 0.011422 2.346361e-38
-0.010538 -0.043371 0.011877 2.346361e-38
-0.0074314 -0.043951 0.011629 2.346361e-38
-0.0044988 -0.043651 0.011302 2.346361e-38
-0.0010891 -0.044159 0.012032 2.346361e-38
0.0019005 -0.044951 0.012035 2.346361e-38
0.0053193 -0.044201 0.010875 2.346361e-38
0.0084917 -0.044486 0.012654 2.346361e-38
0.010728 -0.044294 0.012502 2.346361e-38
0.013283 -0.043162 0.0113 2.346361e-38
0.016759 -0.040898 0.012994 2.346361e-38
0.019718 -0.040317 0.011298 2.346361e-38
0.022667 -0.038765 0.01237 2.346361e-38
0.024132 -0.036791 0.012602 2.346361e-38
0.027383 -0.035138 0.011643 2.346361e-38
0.028913 -0.032808 0.01163 2.346361e-38
0.031539 -0.031286 0.012427 2.346361e-38
0.033005 -0.029524 0.011467 2.346361e-38
0.035201 -0.025509 0.012558 2.346361e-38
0.037621 -0.024008 0.011567 2.346361e-38
0.038681 -0.02173 0.012421 2.346361e-38
0.039664 -0.019302 0.012134 2.346361e-38
0.041393 -0.015435 0.013159 2.346361e-38
0.042297 -0.013371 0.012126 2.346361e-38
0.043926 -0.011099 0.011966 2.346361e-38
0.043596 -0.0075378 0.012142 2.346361e-38
0.043839 -0.004198 0.011619 2.346361e-38
0.043989 -0.0011726 0.012019 2.346361e-38
0.042169 0.00029324 0.010151 2.346361e-38
0.042085 0.0022508 0.0091696 2.346361e-38
0.04145 0.0060679 0.0089732 2.346361e-38
0.041153 0.008994 0.010184 2.346361e-38
0.040035 0.011222 0.010595 2.346361e-38
0.039397 0.013921 0.010063 2.346361e-38
0.037982 0.016493 0.0097444 2.346361e-38
0.036898 0.019377 0.0099192 2.346361e-38
0.035284 0.021008 0.01002 2.346361e-38
0.034392 0.024268 0.010098 2.346361e-38
0.03174 0.026006 0.01109 2.346361e-38
0.029716 0.027461 0.010053 2.346361e-38
0.027844 0.030854 0.010952 2.346361e-38
0.026323 0.03203 0.0098252 2.346361e-38
0.024214 0.034213 0.010127 2.346361e-38
0.021421 0.035179 0.010045 2.346361e-38
0.019319 0.036744 0.01036 2.346361e-38
0.017186 0.038195 0.01084 2.346361e-38
0.014556 0.039372 0.010886 2.346361e-38
0.011167 0.039467 0.0093426 2.346361e-38
0.0085373 0.04045 0.01043 2.346361e-38
0.0060102 0.040953 0.010583 2.346361e-38
0.0035164 0.0407 0.010484 2.346361e-38
0.00051087 0.042048 0.0098683 2.346361e-38
-0.0026617 0.041236 0.0096688 2.346361e-38
-0.0050901 0.040808 0.0091571 2.346361e-38
-0.0082331 0.040689 0.010093 2.346361e-38
-0.010776 0.040574 0.0094477 2.346361e-38
-0.013855 0.039747 0.010183 2.346361e-38
-0.015546 0.038242 0.010436 2.346361e-38
-0.018897 0.037171 0.009778 2.346361e-38
-0.020119 0.035305 0.0094817 2.346361e-38
-0.023798 0.034399 0.010062 2.346361e-38
-0.025815 0.032369 0.010358 2.346361e-38
-0.0282 0.030908 0.009993 2.346361e-38
-0.029737 0.029039 0.010229 2.346361e-38
-0.032159 0.026095 0.010925 2.346361e-38
-0.033767 0.024376 0.010331 2.346361e-38
-0.035205 0.022732 0.0111 2.346361e-38
-0.035546 0.019306 0.0098588 2.346361e-38
-0.0381 0.017376 0.010188 2.346361e-38
-0.038803 0.01505 0.010267 2.346361e-38
-0.040228 0.012452 0.0098403 2.346361e-38
-0.040049 0.0089366 0.009973 2.346361e-38
-0.041242 0.0064854 0.0096936 2.346361e-38
-0.04056 0.0035923 0.010434 2.346361e-38
-0.041356 0.00020224 0.0099823 2.346361e-38
-0.04141 -0.0015763 0.0093765 2.346361e-38
-0.041436 -0.0033633 0.0090778 2.346361e-38
-0.041195 -0.0078314 0.0094944 2.346361e-38
-0.040488 -0.010072 0.010376 2.346361e-38
-0.039015 -0.013226 0.0095109 2.346361e-38
-0.038131 -0.016623 0.010012 2.346361e-38
-0.036535 -0.018583 0.009378 2.346361e-38
-0.035295 -0.020841 0.0096211 2.346361e-38
-0.035159 -0.022683 0.010744 2.346361e-38
-0.032481 -0.027019 0.0090884 2.346361e-38
-0.031871 -0.026857 0.009383 2.346361e-38
-0.028368 -0.030348 0.010839 2.346361e-38
-0.027169 -0.032096 0.010948 2.346361e-38
-0.024175 -0.034232 0.010013 2.346361e-38
-0.022058 -0.034258 0.010824 2.346361e-38
-0.019331 -0.035907 0.0095235 2.346361e-38
-0.016923 -0.037412 0.0099664 2.346361e-38
-0.014194 -0.038624 0.0099925 2.346361e-38
-0.011869 -0.039038 0.010834 2.346361e-38
-0.0097244 -0.041103 0.0091826 2.346361e-38
-0.0066264 -0.040627 0.0098375 2.346361e-38
-0.0041437 -0.041108 0.010236 2.346361e-38
-0.0010443 -0.041066 0.010397 2.346361e-38
0.0020635 -0.04182 0.0088266 2.346361e-38
0.0038725 -0.041953 0.0093787 2.346361e-38
0.0076224 -0.041684 0.010593 2.346361e-38
0.010981 -0.040547 0.010842 2.346361e-38
0.013193 -0.039871 0.010274 2.346361e-38
0.014953 -0.038565 0.0097152 2.346361e-38
0.017926 -0.037725 0.0090114 2.346361e-38
0.020061 -0.035981 0.00984 2.346361e-38
0.022452 -0.034413 0.0099036 2.346361e-38
0.026674 -0.033586 0.0097873 2.346361e-38
0.027578 -0.031224 0.010923 2.346361e-38
0.030039 -0.029066 0.010055 2.346361e-38
0.031685 -0.026946 0.010557 2.346361e-38
0.033576 -0.025241 0.010607 2.346361e-38
0.033842 -0.022152 0.0097966 2.346361e-38
0.0361 -0.0209 0.0094968 2.346361e-38
0.038933 -0.018231 0.010224 2.346361e-38
0.038457 -0.014577 0.0094803 2.346361e-38
0.039528 -0.011369 0.010119 2.346361e-38
0.0402 -0.0095277 0.010854 2.346361e-38
0.041477 -0.0077929 0.0095166 2.346361e-38
0.041478 -0.0039673 0.0098799 2.346361e-38
0.042654 -0.0015342 0.0099711 2.346361e-38
0.040441 0.00080896 0.0072442 2.346361e-38
0.038585 0.0027071 0.007871 2.346361e-38
0.038946 0.0056037 0.0075142 2.346361e-38
0.038935 0.007846 0.0081031 2.346361e-38
0.037384 0.010363 0.0074929 2.346361e-38
0.036783 0.012871 0.0082631 2.346361e-38
0.035355 0.014759 0.0072096 2.346361e-38
0.034297 0.018755 0.00752 2.346361e-38
0.034348 0.01986 0.0079359 2.346361e-38
0.031489 0.022256 0.0075078 2.346361e-38
0.030805 0.025217 0.0078475 2.346361e-38
0.028427 0.02648 0.0071621 2.346361e-38
0.026809 0.02818 0.00794 2.346361e-38
0.025012 0.030478 0.0079533 2.346361e-38
0.022693 0.03214 0.007991 2.346361e-38
0.021623 0.033361 0.0090245 2.346361e-38
0.018237 0.03359 0.0069326 2.346361e-38
0.016079 0.036089 0.0087224 2.346361e-38
0.013304 0.037897 0.0074135 2.346361e-38
0.011813 0.037498 0.0076141 2.346361e-38
0.0085134 0.038205 0.0072383 2.346361e-38
0.0061461 0.03878 0.0076766 2.346361e-38
0.0036259 0.038703 0.0079403 2.346361e-38
1.1756e-05 0.038819 0.0083687 2.346361e-38
-0.0015873 0.039232 0.0076417 2.346361e-38
-0.0046367 0.037853 0.0066616 2.346361e-38
-0.0062536 0.03812 0.007391 2.346361e-38
-0.01021 0.038454 0.0079953 2.346361e-38
-0.012632 0.037803 0.0085643 2.346361e-38
-0.016335 0.036119 0.0070797 2.346361e-38
-0.017586 0.034816 0.0072309 2.346361e-38
-0.019857 0.034281 0.0087439 2.346361e-38
-0.022326 0.032072 0.0077854 2.346361e-38
-0.024625 0.030942 0.0077016 2.346361e-38
-0.026171 0.029763 0.006963 2.346361e-38
-0.028998 0.026915 0.0072017 2.346361e-38
-0.03038 0.025072 0.0082566 2.346361e-38
-0.032181 0.022946 0.0074285 2.346361e-38
-0.033053 0.020809 0.0078059 2.346361e-38
-0.034453 0.018343 0.0079297 2.346361e-38
-0.036352 0.016563 0.008856 2.346361e-38
-0.035974 0.014282 0.0073022 2.346361e-38
-0.037318 0.011092 0.0082509 2.346361e-38
-0.037982 0.0093054 0.0081183 2.346361e-38
-0.038499 0.0071639 0.0076723 2.346361e-38
-0.038927 0.0038881 0.0078423 2.346361e-38
-0.038599 0.00018388 0.0081347 2.346361e-38
-0.039365 -0.0023111 0.0074591 2.346361e-38
-0.039019 -0.004652 0.0079896 2.346361e-38
-0.038692 -0.0069576 0.0079725 2.346361e-38
-0.038022 -0.010243 0.0081626 2.346361e-38
-0.037666 -0.011823 0.0080462 2.346361e-38
-0.036366 -0.014859 0.007682 2.346361e-38
-0.035582 -0.018139 0.0082013 2.346361e-38
-0.033543 -0.020451 0.0079275 2.346361e-38
-0.032666 -0.021601 0.0079782 2.346361e-38
-0.031067 -0.02341 0.0077841 2.346361e-38
-0.029899 -0.025732 0.0083457 2.346361e-38
-0.026787 -0.027359 0.0074596 2.346361e-38
-0.02564 -0.029029 0.0083293 2.346361e-38
-0.022777 -0.031491 0.0073971 2.346361e-38
-0.020913 -0.033098 0.0077585 2.346361e-38
-0.01839 -0.034042 0.0077049 2.346361e-38
-0.016947 -0.035991 0.0075063 2.346361e-38
-0.014607 -0.036256 0.008091 2.346361e-38
-0.011217 -0.03752 0.0084196 2.346361e-38
-0.0098091 -0.038235 0.0072329 2.346361e-38
-0.006382 -0.037893 0.0069246 2.346361e-38
-0.0042402 -0.037837 0.0078081 2.346361e-38
-0.0014354 -0.038842 0.0068834 2.346361e-38
0.0011855 -0.039796 0.0083706 2.346361e-38
0.0039526 -0.039092 0.0082398 2.346361e-38
0.0067051 -0.038623 0.0076674 2.346361e-38
0.0099477 -0.038265 0.008094 2.346361e-38
0.012282 -0.037411 0.0075786 2.346361e-38
0.01408 -0.036912 0.0074049 2.346361e-38
0.018604 -0.035673 0.0078463 2.346361e-38
0.019558 -0.033588 0.0072644 2.346361e-38
0.022353 -0.031827 0.0083639 2.346361e-38
0.024682 -0.031217 0.0075955 2.346361e-38
0.026514 -0.03001 0.0085829 2.346361e-38
0.027595 -0.027893 0.0072513 2.346361e-38
0.028794 -0.026189 0.0087317 2.346361e-38
0.031423 -0.023328 0.0079713 2.346361e-38
0.03266 -0.020571 0.0073361 2.346361e-38
0.033649 -0.019376 0.0074633 2.346361e-38
0.035355 -0.016656 0.007096 2.346361e-38
0.036974 -0.01414 0.0077953 2.346361e-38
0.036637 -0.011071 0.0073445 2.346361e-38
0.037841 -0.0091733 0.0075659 2.346361e-38
0.038754 -0.0062777 0.0071859 2.346361e-38
0.038403 -0.0049297 0.0068165 2.346361e-38
0.038554 -0.0015122 0.00723 2.346361e-38
0.037701 3.0071e-06 0.0048194 2.346361e-38
0.037841 0.0031407 0.0042854 2.346361e-38
0.037349 0.0044008 0.0060977 2.346361e-38
0.037417 0.0081309 0.0041149 2.346361e-38
0.037157 0.010809 0.0064014 2.346361e-38
0.036054 0.012021 0.0046899 2.346361e-38
0.034249 0.014585 0.0053286 2.346361e-38
0.033077 0.016806 0.0038432 2.346361e-38
0.032283 0.019234 0.0049413 2.346361e-38
0.031031 0.020443 0.0041509 2.346361e-38
0.03018 0.023496 0.0047198 2.346361e-38
0.028126 0.024837 0.0035289 2.346361e-38
0.025724 0.028045 0.0046212 2.346361e-38
0.022995 0.029591 0.0043363 2.346361e-38
0.020912 0.03072 0.0042811 2.346361e-38
0.01969 0.032334 0.0048415 2.346361e-38
0.018184 0.033455 0.0042889 2.346361e-38
0.016076 0.034818 0.0048521 2.346361e-38
0.01306 0.03476 0.0058731 2.346361e-38
0.010797 0.035986 0.0043003 2.346361e-38
0.0079188 0.037143 0.0043833 2.346361e-38
0.005936 0.037194 0.0051401 2.346361e-38
0.0023326 0.037547 0.0045682 2.346361e-38
0.00056612 0.03713 0.0044627 2.346361e-38
-0.0028328 0.037123 0.0038824 2.346361e-38
-0.0051941 0.037321 0.0050574 2.346361e-38
-0.0078111 0.037899 0.0045692 2.346361e-38
-0.0097483 0.036737 0.0051402 2.346361e-38
-0.01192 0.035624 0.0061175 2.346361e-38
-0.014452 0.034855 0.0051597 2.346361e-38
-0.016794 0.033771 0.0039475 2.346361e-38
-0.019407 0.032891 0.0056867 2.346361e-38
-0.021654 0.031885 0.0057172 2.346361e-38
-0.022959 0.028597 0.0057063 2.346361e-38
-0.024936 0.027879 0.0053497 2.346361e-38
-0.027357 0.026122 0.0049657 2.346361e-38
-0.029136 0.024885 0.0049981 2.346361e-38
-0.030301 0.02231 0.0053944 2.346361e-38
-0.03214 0.019804 0.0048247 2.346361e-38
-0.033014 0.017476 0.004964 2.346361e-38
-0.034705 0.015579 0.005428 2.346361e-38
-0.035514 0.013555 0.0046582 2.346361e-38
-0.035224 0.010613 0.0044746 2.346361e-38
-0.036918 0.0086654 0.0056907 2.346361e-38
-0.037252 0.0048589 0.0050176 2.346361e-38
-0.037392 0.0031438 0.0048942 2.346361e-38
-0.038472 0.001224 0.0049056 2.346361e-38
-0.037123 -0.001851 0.0038749 2.346361e-38
-0.036953 -0.0034288 0.0048057 2.346361e-38
-0.03741 -0.008003 0.0048159 2.346361e-38
-0.037377 -0.009666 0.0043882 2.346361e-38
-0.035821 -0.011335 0.0050585 2.346361e-38
-0.034769 -0.014048 0.005651 2.346361e-38
-0.03457 -0.016643 0.0050458 2.346361e-38
-0.032672 -0.018823 0.0041889 2.346361e-38
-0.031379 -0.021114 0.0044187 2.346361e-38
-0.029708 -0.022891 0.0049899 2.346361e-38
-0.028083 -0.025441 0.0041418 2.346361e-38
-0.026469 -0.027194 0.005106 2.346361e-38
-0.024198 -0.028446 0.0044408 2.346361e-38
-0.022364 -0.030517 0.0050838 2.346361e-38
-0.020287 -0.031395 0.0039557 2.346361e-38
-0.018232 -0.032975 0.0049405 2.346361e-38
-0.015195 -0.034479 0.0046284 2.346361e-38
-0.013603 -0.035892 0.0046283 2.346361e-38
-0.010864 -0.036106 0.0049975 2.346361e-38
-0.0088104 -0.036492 0.0045473 2.346361e-38
-0.0057848 -0.036283 0.0045801 2.346361e-38
-0.003426 -0.037418 0.0056408 2.346361e-38
-0.00070277 -0.037911 0.0041873 2.346361e-38
0.0013186 -0.037258 0.0044449 2.346361e-38
0.0046311 -0.037283 0.0051579 2.346361e-38
0.0063093 -0.037844 0.0042033 2.346361e-38
0.0097692 -0.036839 0.0050166 2.346361e-38
0.011774 -0.035332 0.003899 2.346361e-38
0.014083 -0.03559 0.0045351 2.346361e-38
0.016709 -0.034691 0.0047363 2.346361e-38
0.018183 -0.032509 0.0042915 2.346361e-38
0.019697 -0.032148 0.0035424 2.346361e-38
0.024279 -0.029484 0.004124 2.346361e-38
0.02499 -0.028739 0.0047006 2.346361e-38
0.026475 -0.026453 0.0050602 2.346361e-38
0.028992 -0.025451 0.0044898 2.346361e-38
0.030308 -0.023817 0.0042349 2.346361e-38
0.031043 -0.020754 0.0049279 2.346361e-38
0.032927 -0.018257 0.005681 2.346361e-38
0.033725 -0.016744 0.0041306 2.346361e-38
0.035574 -0.014085 0.0049172 2.346361e-38
0.036259 -0.011319 0.0047086 2.346361e-38
0.036083 -0.0089454 0.004822 2.346361e-38
0.037551 -0.0061074 0.0046637 2.346361e-38
0.037639 -0.0030934 0.0050269 2.346361e-38
0.037391 -0.0015033 0.0054092 2.346361e-38
0.036209 0.0012402 0.0013025 2.346361e-38
0.037028 0.002634 0.0024284 2.346361e-38
0.036922 0.0050896 0.0024888 2.346361e-38
0.036602 0.0071384 0.0020944 2.346361e-38
0.035343 0.0096778 0.001145 2.346361e-38
0.035019 0.012515 0.00077866 2.346361e-38
0.033835 0.014663 0.0024296 2.346361e-38
0.033105 0.017129 0.0017253 2.346361e-38
0.03116 0.019053 0.0021217 2.346361e-38
0.030677 0.020533 0.0015252 2.346361e-38
0.028943 0.023985 0.0018379 2.346361e-38
0.026606 0.024933 0.0016924 2.346361e-38
0.025506 0.027277 0.0019384 2.346361e-38
0.023279 0.028323 0.0025621 2.346361e-38
0.021432 0.030126 0.0026439 2.346361e-38
0.020341 0.031802 0.0016138 2.346361e-38
0.017628 0.033451 0.0017323 2.346361e-38
0.015091 0.033857 0.0018522 2.346361e-38
0.013093 0.034901 0.0013485 2.346361e-38
0.0089157 0.035762 0.0019269 2.346361e-38
0.008565 0.034655 0.0022869 2.346361e-38
0.0046518 0.036073 0.0018109 2.346361e-38
0.0027824 0.037519 0.0013464 2.346361e-38
0.00060522 0.037907 0.00069952 2.346361e-38
-0.0025417 0.036921 0.0016238 2.346361e-38
-0.0045817 0.037241 0.0016901 2.346361e-38
-0.0077269 0.035906 0.0025874 2.346361e-38
-0.0093817 0.035809 0.0012238 2.346361e-38
-0.011806 0.035037 0.0018672 2.346361e-38
-0.014627 0.033412 9.3839e-05 2.346361e-38
-0.016016 0.033683 0.0020513 2.346361e-38
-0.018774 0.031059 0.00059555 2.346361e-38
-0.021103 0.029531 0.002046 2.346361e-38
-0.02331 0.02826 0.0017625 2.346361e-38
-0.024529 0.02693 0.0015509 2.346361e-38
-0.026277 0.025666 0.0011261 2.346361e-38
-0.028549 0.023682 0.0020023 2.346361e-38
-0.030135 0.021277 0.0016346 2.346361e-38
-0.031761 0.01845 0.0020187 2.346361e-38
-0.032143 0.016629 0.0016711 2.346361e-38
-0.033542 0.015045 0.00071068 2.346361e-38
-0.035384 0.013648 0.0022004 2.346361e-38
-0.034921 0.010834 0.0014369 2.346361e-38
-0.035491 0.0076125 0.0012029 2.346361e-38
-0.036557 0.005649 0.0010294 2.346361e-38
-0.036767 0.0028677 0.0017175 2.346361e-38
-0.03658 0.00098437 0.0012189 2.346361e-38
-0.036362 -0.0020342 0.00098796 2.346361e-38
-0.036057 -0.0055071 0.0013031 2.346361e-38
-0.036503 -0.0076901 0.0021227 2.346361e-38
-0.03624 -0.00909 0.0022638 2.346361e-38
-0.034575 -0.011512 0.0014657 2.346361e-38
-0.034333 -0.015212 0.0021389 2.346361e-38
-0.033068 -0.016762 0.001716 2.346361e-38
-0.032228 -0.019116 0.0017751 2.346361e-38
-0.031581 -0.020274 0.002051 2.346361e-38
-0.028916 -0.022222 0.0014566 2.346361e-38
-0.027901 -0.025474 0.0012676 2.346361e-38
-0.025992 -0.026156 0.0015219 2.346361e-38
-0.024368 -0.028177 0.0010577 2.346361e-38
-0.022242 -0.029616 0.0019831 2.346361e-38
-0.021021 -0.031199 0.0001122 2.346361e-38
-0.017516 -0.032913 0.0024159 2.346361e-38
-0.016251 -0.033476 0.0016506 2.346361e-38
-0.013084 -0.03411 0.0021222 2.346361e-38
-0.010696 -0.035232 0.0011641 2.346361e-38
-0.0081852 -0.035158 0.0015419 2.346361e-38
-0.00621 -0.036136 0.001006 2.346361e-38
-0.0035108 -0.036958 0.0010927 2.346361e-38
-0.0014954 -0.037172 0.0019321 2.346361e-38
0.0010845 -0.036123 0.0019737 2.346361e-38
0.0044887 -0.036458 0.0027272 2.346361e-38
0.0074106 -0.036387 0.001922 2.346361e-38
0.0082912 -0.036166 0.0018778 2.346361e-38
0.010357 -0.035277 0.0013913 2.346361e-38
0.014138 -0.034202 0.0018426 2.346361e-38
0.015757 -0.033448 0.0018271 2.346361e-38
0.017689 -0.031392 0.00081457 2.346361e-38
0.020432 -0.031587 0.0012724 2.346361e-38
0.022021 -0.029586 0.0012063 2.346361e-38
0.024921 -0.027404 0.0017628 2.346361e-38
0.026618 -0.026528 0.001537 2.346361e-38
0.027985 -0.024 0.0016627 2.346361e-38
0.029896 -0.021692 0.0027816 2.346361e-38
0.030354 -0.020834 0.0025376 2.346361e-38
0.033172 -0.018322 0.0018916 2.346361e-38
0.034399 -0.015434 0.00212 2.346361e-38
0.034261 -0.013141 0.0011044 2.346361e-38
0.034613 -0.010576 0.0015715 2.346361e-38
0.034131 -0.0083363 0.0014539 2.346361e-38
0.03632 -0.0066709 0.0011728 2.346361e-38
0.036274 -0.0036908 0.0011955 2.346361e-38
0.03738 -0.0012737 0.0014293 2.346361e-38
0.036262 -0.00049992 -0.0023814 2.346361e-38
0.036811 0.0034309 -0.0014676 2.346361e-38
0.035616 0.0051222 -0.0015044 2.346361e-38
0.03517 0.0082582 -0.0020725 2.346361e-38
0.035334 0.010178 -0.0025375 2.346361e-38
0.034437 0.01286 -0.0021209 2.346361e-38
0.033074 0.014563 -0.0017319 2.346361e-38
0.033213 0.017362 -0.0010416 2.346361e-38
0.030903 0.019606 -0.001297 2.346361e-38
0.03001 0.020579 -0.0014518 2.346361e-38
0.028191 0.023111 -0.0017714 2.346361e-38
0.027394 0.02476 -0.0012856 2.346361e-38
0.025282 0.02627 -0.001681 2.346361e-38
0.024077 0.028364 -0.0022936 2.346361e-38
0.02136 0.029335 -0.0012947 2.346361e-38
0.018952 0.032177 -0.0020953 2.346361e-38
0.017244 0.033055 -0.0015281 2.346361e-38
0.015322 0.03512 -0.0023752 2.346361e-38
0.012787 0.035554 -0.0020178 2.346361e-38
0.0093627 0.035831 -0.00080954 2.346361e-38
0.0072046 0.035379 -0.0014303 2.346361e-38
0.0052541 0.036994 -0.0013811 2.346361e-38
0.0025788 0.03732 -0.0016628 2.346361e-38
0.00048083 0.036876 -0.0011949 2.346361e-38
-0.0020784 0.036424 -0.0016897 2.346361e-38
-0.0041527 0.03609 -0.0015361 2.346361e-38
-0.0067529 0.036305 -0.0012847 2.346361e-38
-0.009266 0.035742 -0.0013089 2.346361e-38
-0.010979 0.035015 -0.0028633 2.346361e-38
-0.014373 0.034132 -0.0018734 2.346361e-38
-0.016796 0.032768 -0.0012831 2.346361e-38
-0.01863 0.031503 -0.001961 2.346361e-38
-0.022186 0.030005 -0.001488 2.346361e-38
-0.023061 0.029138 -0.0013905 2.346361e-38
-0.025312 0.027586 -0.0010227 2.346361e-38
-0.027326 0.025176 -0.0015748 2.346361e-38
-0.028729 0.023362 -0.0019261 2.346361e-38
-0.029978 0.022246 -0.002032 2.346361e-38
-0.030946 0.019753 -0.0015263 2.346361e-38
-0.032962 0.017138 -0.0019758 2.346361e-38
-0.033908 0.014855 -0.002717 2.346361e-38
-0.03475 0.012638 -0.0015282 2.346361e-38
-0.036412 0.011331 -0.0019095 2.346361e-38
-0.036267 0.0075017 -0.0017625 2.346361e-38
-0.036606 0.0055573 -0.0015209 2.346361e-38
-0.037541 0.0033632 -0.0018989 2.346361e-38
-0.036477 0.0002394 -0.001226 2.346361e-38
-0.036202 -0.0018899 -0.0025234 2.346361e-38
-0.035653 -0.004516 -0.0015132 2.346361e-38
-0.035828 -0.0064462 -0.00083909 2.346361e-38
-0.036647 -0.0095586 -0.0018986 2.346361e-38
-0.034613 -0.011752 -0.0017661 2.346361e-38
-0.033767 -0.014032 -0.002246 2.346361e-38
-0.032448 -0.015965 -0.0020972 2.346361e-38
-0.031684 -0.018335 -0.0026554 2.346361e-38
-0.031217 -0.020334 -0.0016093 2.346361e-38
-0.030012 -0.022128 -0.0017514 2.346361e-38
-0.026771 -0.025177 -0.0012115 2.346361e-38
-0.025653 -0.026653 -0.0011259 2.346361e-38
-0.023932 -0.028169 -0.001968 2.346361e-38
-0.022122 -0.02942 -0.001182 2.346361e-38
-0.020386 -0.031044 -0.0019731 2.346361e-38
-0.017172 -0.031523 -0.0013662 2.346361e-38
-0.015378 -0.032547 -0.00096134 2.346361e-38
-0.012825 -0.034563 -0.0015641 2.346361e-38
-0.011201 -0.035527 -0.0026616 2.346361e-38
-0.0085219 -0.035929 -0.0012264 2.346361e-38
-0.0058553 -0.03634 -0.0016033 2.346361e-38
-0.0039554 -0.03737 -0.0024624 2.346361e-38
-0.001227 -0.036618 -0.0017584 2.346361e-38
0.0016267 -0.036769 -0.0021011 2.346361e-38
0.0038485 -0.036294 -0.00184 2.346361e-38
0.0067641 -0.036135 -0.0026499 2.346361e-38
0.0081937 -0.036707 -0.001425 2.346361e-38
0.011386 -0.035117 -0.0025132 2.346361e-38
0.013435 -0.034479 -0.0014656 2.346361e-38
0.014778 -0.033342 -0.0017124 2.346361e-38
0.018289 -0.031771 -0.0010239 2.346361e-38
0.020024 -0.029597 -0.0016148 2.346361e-38
0.022596 -0.028325 -0.0024746 2.346361e-38
0.024707 -0.027537 -0.0019372 2.346361e-38
0.026389 -0.026321 -0.0014482 2.346361e-38
0.027562 -0.023513 -0.0014681 2.346361e-38
0.029589 -0.022223 -0.0015349 2.346361e-38
0.030425 -0.020297 -0.0013215 2.346361e-38
0.031343 -0.01748 -0.0012634 2.346361e-38
0.034099 -0.016108 -0.0012282 2.346361e-38
0.034558 -0.012755 -0.00091563 2.346361e-38
0.034586 -0.010538 -0.0019157 2.346361e-38
0.035241 -0.0084573 -0.0010854 2.346361e-38
0.036935 -0.0063887 -0.0013172 2.346361e-38
0.036483 -0.0041699 -0.0012051 2.346361e-38
0.0374 -0.00067666 -0.0011531 2.346361e-38
0.037672 7.8825e-05 -0.0042073 2.346361e-38
0.03747 0.0023619 -0.0054849 2.346361e-38
0.037058 0.0050219 -0.0052768 2.346361e-38
0.035978 0.0076191 -0.0046184 2.346361e-38
0.036239 0.010652 -0.0047353 2.346361e-38
0.036352 0.0124 -0.0049611 2.346361e-38
0.034445 0.014105 -0.0054174 2.346361e-38
0.033925 0.017499 -0.0048209 2.346361e-38
0.033148 0.018994 -0.0050119 2.346361e-38
0.030407 0.021801 -0.0049548 2.346361e-38
0.028898 0.023773 -0.0046302 2.346361e-38
0.02735 0.02569 -0.0043679 2.346361e-38
0.025464 0.027953 -0.0040439 2.346361e-38
0.023733 0.029312 -0.0050127 2.346361e-38
0.021461 0.031562 -0.0048008 2.346361e-38
0.019384 0.034144 -0.0053348 2.346361e-38
0.017446 0.033867 -0.0044819 2.346361e-38
0.015209 0.034847 -0.0045111 2.346361e-38
0.01327 0.034766 -0.0040932 2.346361e-38
0.010299 0.036167 -0.0048121 2.346361e-38
0.0077709 0.03649 -0.0045097 2.346361e-38
0.0049881 0.036886 -0.0047762 2.346361e-38
0.002786 0.036811 -0.0054391 2.346361e-38
-0.00090207 0.037558 -0.0050341 2.346361e-38
-0.0027164 0.03733 -0.0049668 2.346361e-38
-0.0046283 0.037631 -0.0045882 2.346361e-38
-0.0061205 0.037008 -0.0048698 2.346361e-38
-0.0096295 0.035764 -0.0040624 2.346361e-38
-0.012374 0.035226 -0.0036742 2.346361e-38
-0.014546 0.034848 -0.0054229 2.346361e-38
-0.016947 0.03429 -0.004344 2.346361e-38
-0.019126 0.032386 -0.0046389 2.346361e-38
-0.02146 0.030554 -0.0051805 2.346361e-38
-0.023132 0.028759 -0.0053094 2.346361e-38
-0.02578 0.027721 -0.0046578 2.346361e-38
-0.027381 0.026083 -0.0045864 2.346361e-38
-0.028993 0.023875 -0.0044853 2.346361e-38
-0.031607 0.021964 -0.0058118 2.346361e-38
-0.031983 0.020547 -0.0051876 2.346361e-38
-0.033616 0.01803 -0.0052852 2.346361e-38
-0.033839 0.015033 -0.0049713 2.346361e-38
-0.0359 0.013249 -0.0049835 2.346361e-38
-0.036051 0.010529 -0.0055068 2.346361e-38
-0.036885 0.0084522 -0.0050345 2.346361e-38
-0.037083 0.0064857 -0.0050081 2.346361e-38
-0.038084 0.0022867 -0.0048877 2.346361e-38
-0.03764 0.00047417 -0.0047411 2.346361e-38
-0.038081 -0.0021596 -0.0053325 2.346361e-38
-0.03774 -0.0042323 -0.0044678 2.346361e-38
-0.037129 -0.0071918 -0.0051769 2.346361e-38
-0.036196 -0.010012 -0.005295 2.346361e-38
-0.035523 -0.012092 -0.0055592 2.346361e-38
-0.034965 -0.013824 -0.0051929 2.346361e-38
-0.033605 -0.016936 -0.0049916 2.346361e-38
-0.032061 -0.017698 -0.0043217 2.346361e-38
-0.031 -0.020874 -0.0044614 2.346361e-38
-0.029097 -0.022629 -0.0054999 2.346361e-38
-0.028074 -0.025128 -0.0046637 2.346361e-38
-0.027082 -0.027072 -0.0054345 2.346361e-38
-0.023897 -0.028158 -0.004681 2.346361e-38
-0.022624 -0.030731 -0.0055736 2.346361e-38
-0.020217 -0.031316 -0.005511 2.346361e-38
-0.018786 -0.033076 -0.0046545 2.346361e-38
-0.015409 -0.034071 -0.0047396 2.346361e-38
-0.013621 -0.034979 -0.0051407 2.346361e-38
-0.01216 -0.03595 -0.0055368 2.346361e-38
-0.0090406 -0.036349 -0.0046661 2.346361e-38
-0.0056826 -0.036731 -0.0049934 2.346361e-38
-0.0033743 -0.037379 -0.0048689 2.346361e-38
-0.00054198 -0.037767 -0.0053789 2.346361e-38
0.0017459 -0.037564 -0.0039675 2.346361e-38
0.0033076 -0.03729 -0.0039414 2.346361e-38
0.0063785 -0.03631 -0.0049036 2.346361e-38
0.0093871 -0.037393 -0.0052773 2.346361e-38
0.011583 -0.036481 -0.0038128 2.346361e-38
0.013672 -0.035487 -0.0057351 2.346361e-38
0.016819 -0.034575 -0.004906 2.346361e-38
0.01879 -0.033422 -0.005105 2.346361e-38
0.020574 -0.030538 -0.0045857 2.346361e-38
0.023023 -0.029335 -0.0042598 2.346361e-38
0.025702 -0.029219 -0.0048739 2.346361e-38
0.027241 -0.026528 -0.0051741 2.346361e-38
0.028112 -0.024324 -0.0036835 2.346361e-38
0.030323 -0.023591 -0.0050829 2.346361e-38
0.031568 -0.021355 -0.0053576 2.346361e-38
0.032501 -0.019677 -0.0049322 2.346361e-38
0.034179 -0.016319 -0.0045506 2.346361e-38
0.035061 -0.013825 -0.004786 2.346361e-38
0.035835 -0.011307 -0.0056192 2.346361e-38
0.036911 -0.0092969 -0.0049514 2.346361e-38
0.037002 -0.0059288 -0.0043414 2.346361e-38
0.037699 -0.0038972 -0.0042669 2.346361e-38
0.037312 -0.00059886 -0.0043043 2.346361e-38
0.038427 0.00078082 -0.0079802 2.346361e-38
0.038754 0.003436 -0.008002 2.346361e-38
0.038749 0.0054803 -0.0073108 2.346361e-38
0.03761 0.006923 -0.0086265 2.346361e-38
0.038286 0.011203 -0.0071605 2.346361e-38
0.037634 0.013576 -0.0072704 2.346361e-38
0.036326 0.015432 -0.0084392 2.346361e-38
0.035238 0.018047 -0.0076681 2.346361e-38
0.033991 0.020269 -0.0073237 2.346361e-38
0.031783 0.023537 -0.0074183 2.346361e-38
0.030563 0.024594 -0.0081994 2.346361e-38
0.029209 0.026474 -0.007419 2.346361e-38
0.027731 0.029186 -0.0073643 2.346361e-38
0.024619 0.030664 -0.0083247 2.346361e-38
0.023142 0.033269 -0.0070958 2.346361e-38
0.020893 0.033741 -0.0071764 2.346361e-38
0.019061 0.034638 -0.007903 2.346361e-38
0.015318 0.036029 -0.0081381 2.346361e-38
0.012528 0.037711 -0.0076993 2.346361e-38
0.01036 0.038891 -0.0076889 2.346361e-38
0.0078523 0.038919 -0.0074656 2.346361e-38
0.005847 0.039624 -0.0079336 2.346361e-38
0.0031716 0.040302 -0.00727 2.346361e-38
0.00046723 0.038878 -0.0081961 2.346361e-38
-0.0013427 0.039386 -0.0078469 2.346361e-38
-0.0048708 0.038224 -0.0077156 2.346361e-38
-0.0073062 0.037956 -0.0083158 2.346361e-38
-0.010307 0.037891 -0.0076797 2.346361e-38
-0.012311 0.036243 -0.0087163 2.346361e-38
-0.016525 0.03611 -0.0079248 2.346361e-38
-0.018173 0.033855 -0.0072044 2.346361e-38
-0.019863 0.033101 -0.0084432 2.346361e-38
-0.022626 0.032029 -0.0075295 2.346361e-38
-0.024558 0.031181 -0.0078809 2.346361e-38
-0.025965 0.029341 -0.0074089 2.346361e-38
-0.027883 0.027233 -0.0081534 2.346361e-38
-0.030172 0.024241 -0.0082728 2.346361e-38
-0.032035 0.023272 -0.0076636 2.346361e-38
-0.033359 0.01994 -0.0072115 2.346361e-38
-0.035325 0.018471 -0.0071218 2.346361e-38
-0.036256 0.015871 -0.0089728 2.346361e-38
-0.037451 0.013849 -0.0073955 2.346361e-38
-0.037494 0.010791 -0.0086571 2.346361e-38
-0.038366 0.0093302 -0.0083655 2.346361e-38
-0.03881 0.006198 -0.0076485 2.346361e-38
-0.039751 0.0038908 -0.0072495 2.346361e-38
-0.038631 0.0016845 -0.0081542 2.346361e-38
-0.038992 -0.0023194 -0.0075245 2.346361e-38
-0.039829 -0.004561 -0.008243 2.346361e-38
-0.037502 -0.0078533 -0.0072796 2.346361e-38
-0.038709 -0.0097849 -0.0073641 2.346361e-38
-0.037231 -0.012619 -0.0077365 2.346361e-38
-0.03662 -0.015448 -0.0082956 2.346361e-38
-0.034394 -0.017216 -0.0082918 2.346361e-38
-0.034194 -0.019182 -0.0082465 2.346361e-38
-0.03204 -0.021838 -0.0077668 2.346361e-38
-0.031029 -0.024734 -0.0080434 2.346361e-38
-0.030247 -0.026654 -0.0077968 2.346361e-38
-0.027156 -0.027818 -0.0072962 2.346361e-38
-0.025898 -0.030432 -0.007521 2.346361e-38
-0.022602 -0.031939 -0.0073488 2.346361e-38
-0.02152 -0.032839 -0.0069218 2.346361e-38
-0.018334 -0.033988 -0.0073004 2.346361e-38
-0.01667 -0.035299 -0.0079338 2.346361e-38
-0.014291 -0.036304 -0.0069081 2.346361e-38
-0.01197 -0.038066 -0.0079457 2.346361e-38
-0.00884 -0.039482 -0.0073586 2.346361e-38
-0.0071543 -0.038427 -0.007578 2.346361e-38
-0.0036595 -0.039636 -0.0078238 2.346361e-38
-0.0014838 -0.038694 -0.0079228 2.346361e-38
0.0015735 -0.039452 -0.0079694 2.346361e-38
0.003671 -0.038292 -0.0069101 2.346361e-38
0.0078666 -0.037683 -0.0076319 2.346361e-38
0.0099155 -0.038373 -0.0069746 2.346361e-38
0.012628 -0.037543 -0.0081188 2.346361e-38
0.014967 -0.036471 -0.0080055 2.346361e-38
0.01643 -0.035407 -0.0077205 2.346361e-38
0.019633 -0.034035 -0.0079099 2.346361e-38
0.022143 -0.032521 -0.0072672 2.346361e-38
0.024613 -0.031735 -0.0079448 2.346361e-38
0.026159 -0.028877 -0.0080187 2.346361e-38
0.028548 -0.027343 -0.0073052 2.346361e-38
0.029614 -0.025362 -0.0078697 2.346361e-38
0.030691 -0.023664 -0.0083184 2.346361e-38
0.032494 -0.021329 -0.0079554 2.346361e-38
0.033902 -0.018907 -0.0085801 2.346361e-38
0.036271 -0.017181 -0.0084696 2.346361e-38
0.036411 -0.014205 -0.0073472 2.346361e-38
0.037517 -0.012517 -0.0078031 2.346361e-38
0.037633 -0.0091447 -0.0080919 2.346361e-38
0.038494 -0.0069199 -0.0080111 2.346361e-38
0.039187 -0.0048061 -0.0077478 2.346361e-38
