# .PCD v.7 - Point Cloud Data file format
FIELDS x y z rgb
SIZE 4 4 4 4
TYPE F F F F
COUNT 1 1 1 1
WIDTH 1144
HEIGHT 1
VIEWPOINT 0 0 0 1 0 0 0
POINTS 1144
DATA ascii
0.0064871 -0.00091515 0.015598 9.147676e-41
0.0074524 0.0015044 0.016599 9.147676e-41
0.0060912 0.00421 0.016863 9.147676e-41
0.0035431 0.0061884 0.015899 9.147676e-41
0.0007297 0.0070253 0.016592 9.147676e-41
-0.0021446 0.0068758 0.017833 9.147676e-41
-0.0050445 0.0048469 0.016629 9.147676e-41
-0.0063444 0.0032329 0.017185 9.147676e-41
-0.0056176 0.00088331 0.017416 9.147676e-41
-0.0067383 -0.0017276 0.017821 9.147676e-41
-0.0056012 -0.005072 0.017897 9.147676e-41
-0.0023777 -0.0068661 0.01739 9.147676e-41
-0.00039575 -0.0072925 0.017206 9.147676e-41
0.0019512 -0.0051569 0.017815 9.147676e-41
0.0051956 -0.0048712 0.017177 9.147676e-41
0.0061455 -0.0017928 0.017409 9.147676e-41
0.0067304 0.00015573 0.018488 9.147676e-41
0.0068751 0.003683 0.018367 9.147676e-41
0.0059777 0.0049566 0.018192 9.147676e-41
0.0035682 0.0060974 0.018336 9.147676e-41
0.0014576 0.0067088 0.018616 9.147676e-41
-0.0021668 0.0069886 0.018502 9.147676e-41
-0.0054136 0.0058215 0.018006 9.147676e-41
-0.0064246 0.0047064 0.01782 9.147676e-41
-0.0070531 0.0016418 0.018157 9.147676e-41
-0.0075747 0.0003773 0.017603 9.147676e-41
-0.0062942 -0.002899 0.01784 9.147676e-41
-0.0041457 -0.0054396 0.017939 9.147676e-41
-0.002188 -0.0062801 0.017751 9.147676e-41
0.00036046 -0.0073267 0.018775 9.147676e-41
0.0021554 -0.0071347 0.017451 9.147676e-41
0.0047866 -0.0058671 0.018038 9.147676e-41
0.0063881 -0.0041933 0.018673 9.147676e-41
0.0064329 -0.0012082 0.018352 9.147676e-41
0.0077867 0.0014443 0.020293 9.147676e-41
0.0067979 0.0050238 0.019948 9.147676e-41
0.0051259 0.0065301 0.018971 9.147676e-41
0.0022014 0.0071663 0.018949 9.147676e-41
-3.338e-05 0.0077802 0.018593 9.147676e-41
-0.003121 0.007079 0.019182 9.147676e-41
-0.0051036 0.0058461 0.019421 9.147676e-41
-0.0069088 0.0043581 0.01949 9.147676e-41
-0.0071466 0.00059913 0.018175 9.147676e-41
-0.0078078 -0.0017995 0.018612 9.147676e-41
-0.0062384 -0.0045244 0.018959 9.147676e-41
-0.0051412 -0.006172 0.018888 9.147676e-41
-0.0013074 -0.0071814 0.019227 9.147676e-41
0.00036312 -0.0073364 0.01952 9.147676e-41
0.0031418 -0.0063808 0.018914 9.147676e-41
0.0057489 -0.0055418 0.01912 9.147676e-41
0.006631 -0.0035312 0.018879 9.147676e-41
0.0077797 -0.00060797 0.019367 9.147676e-41
0.0081255 0.0013559 0.019876 9.147676e-41
0.0066454 0.0034397 0.0202 9.147676e-41
0.0042018 0.0065351 0.02001 9.147676e-41
0.0011666 0.0070986 0.020543 9.147676e-41
-0.0017686 0.0080438 0.0199 9.147676e-41
-0.0040151 0.0074749 0.020172 9.147676e-41
-0.0048721 0.0057679 0.019443 9.147676e-41
-0.0079471 0.0031303 0.020002 9.147676e-41
-0.0082288 -0.0006506 0.02034 9.147676e-41
-0.0067134 -0.002748 0.020236 9.147676e-41
-0.0061516 -0.0049471 0.020168 9.147676e-41
-0.0042095 -0.0078965 0.020748 9.147676e-41
-0.000544 -0.0084533 0.0199 9.147676e-41
0.00054179 -0.0084164 0.020902 9.147676e-41
0.0035704 -0.0066885 0.019617 9.147676e-41
0.0055936 -0.005376 0.019822 9.147676e-41
0.0077474 -0.0027835 0.020442 9.147676e-41
0.0088206 -0.00032637 0.020291 9.147676e-41
0.0085622 0.0024581 0.021751 9.147676e-41
0.0076423 0.0047962 0.020557 9.147676e-41
0.0047065 0.0063781 0.020989 9.147676e-41
0.0033631 0.0078023 0.021481 9.147676e-41
0.00049773 0.0085239 0.020943 9.147676e-41
-0.0025273 0.0081577 0.021886 9.147676e-41
-0.0046971 0.0061981 0.02125 9.147676e-41
-0.0067993 0.0057647 0.020638 9.147676e-41
-0.0084724 0.0027947 0.020942 9.147676e-41
-0.0077441 0.00077357 0.020855 9.147676e-41
-0.0084988 -0.0015773 0.021298 9.147676e-41
-0.0073188 -0.0031208 0.020875 9.147676e-41
-0.0053772 -0.0065588 0.021727 9.147676e-41
-0.0034933 -0.0075688 0.02076 9.147676e-41
-0.00063896 -0.0087549 0.020572 9.147676e-41
0.0020404 -0.0076808 0.020581 9.147676e-41
0.0038501 -0.0076767 0.020308 9.147676e-41
0.0058131 -0.0055952 0.020081 9.147676e-41
0.0073682 -0.0038034 0.021612 9.147676e-41
0.0084949 -0.0020468 0.020837 9.147676e-41
0.0078601 0.001055 0.021424 9.147676e-41
0.0074361 0.0045175 0.021371 9.147676e-41
0.0066996 0.0065475 0.022408 9.147676e-41
0.0047392 0.0076085 0.022914 9.147676e-41
0.0025575 0.0089113 0.022542 9.147676e-41
-0.0012714 0.0090099 0.022717 9.147676e-41
-0.0036619 0.0088659 0.022333 9.147676e-41
-0.0056647 0.0074977 0.02224 9.147676e-41
-0.007128 0.0049315 0.022298 9.147676e-41
-0.0082382 0.0014704 0.022661 9.147676e-41
-0.00809 -0.00064775 0.022529 9.147676e-41
-0.0078782 -0.0033454 0.021425 9.147676e-41
-0.0077497 -0.0050758 0.022062 9.147676e-41
-0.0053325 -0.0067724 0.021516 9.147676e-41
-0.0017456 -0.0088884 0.02203 9.147676e-41
-0.00021847 -0.0085987 0.021559 9.147676e-41
0.0030517 -0.0083308 0.022001 9.147676e-41
0.0053503 -0.006293 0.022424 9.147676e-41
0.0072245 -0.0056229 0.022376 9.147676e-41
0.0080749 -0.0027346 0.021409 9.147676e-41
0.0095524 -0.0002746 0.022431 9.147676e-41
0.0090439 0.0023773 0.02296 9.147676e-41
0.00735 0.0058943 0.02328 9.147676e-41
0.006276 0.0078248 0.023626 9.147676e-41
0.0033421 0.0089291 0.022786 9.147676e-41
0.00018543 0.0092666 0.023672 9.147676e-41
-0.0024961 0.0090249 0.023483 9.147676e-41
-0.0054739 0.0077659 0.02223 9.147676e-41
-0.0068341 0.0055402 0.02266 9.147676e-41
-0.0086187 0.0032546 0.023412 9.147676e-41
-0.0095799 0.00093092 0.023353 9.147676e-41
-0.0087797 -0.0019982 0.023039 9.147676e-41
-0.0091266 -0.0040684 0.022435 9.147676e-41
-0.0065459 -0.0073601 0.02337 9.147676e-41
-0.004255 -0.0082857 0.022793 9.147676e-41
-0.0012563 -0.0092859 0.02313 9.147676e-41
0.0024284 -0.0088972 0.023382 9.147676e-41
0.0044619 -0.0079218 0.023022 9.147676e-41
0.0066695 -0.0063927 0.023404 9.147676e-41
0.0082307 -0.0035752 0.023567 9.147676e-41
0.0088465 -0.0013885 0.023058 9.147676e-41
0.009855 0.00070032 0.02415 9.147676e-41
0.0094835 0.0038857 0.023982 9.147676e-41
0.0068894 0.0064367 0.024973 9.147676e-41
0.0053474 0.0080303 0.024223 9.147676e-41
0.0019714 0.0095505 0.024232 9.147676e-41
-0.00075937 0.010178 0.024579 9.147676e-41
-0.0041192 0.0086139 0.024042 9.147676e-41
-0.0059985 0.0073701 0.024671 9.147676e-41
-0.0090092 0.0053722 0.025017 9.147676e-41
-0.0097178 0.0026349 0.024329 9.147676e-41
-0.0099914 -0.00051501 0.024956 9.147676e-41
-0.009943 -0.0028074 0.023403 9.147676e-41
-0.0076277 -0.0056904 0.024371 9.147676e-41
-0.0066165 -0.0078654 0.02406 9.147676e-41
-0.0025088 -0.0092443 0.024955 9.147676e-41
-0.0010825 -0.0098633 0.02441 9.147676e-41
0.0029439 -0.0092906 0.023895 9.147676e-41
0.0052715 -0.0079735 0.025077 9.147676e-41
0.0079094 -0.0054488 0.023799 9.147676e-41
0.0088953 -0.0038581 0.02357 9.147676e-41
0.0092988 0.00042976 0.024094 9.147676e-41
0.0095679 0.0025519 0.026623 9.147676e-41
0.0085663 0.005682 0.025689 9.147676e-41
0.007185 0.0065186 0.025359 9.147676e-41
0.0055843 0.0086703 0.024104 9.147676e-41
0.0037194 0.009332 0.024752 9.147676e-41
0.0013464 0.010554 0.024863 9.147676e-41
-0.0011868 0.0094436 0.025563 9.147676e-41
-0.0042908 0.0098975 0.02505 9.147676e-41
-0.0061172 0.0087555 0.025075 9.147676e-41
-0.0085013 0.0055413 0.025514 9.147676e-41
-0.009769 0.0038628 0.025111 9.147676e-41
-0.010166 0.0014557 0.0242 9.147676e-41
-0.010396 -0.0014751 0.025716 9.147676e-41
-0.0096957 -0.0032766 0.024988 9.147676e-41
-0.0084955 -0.0056623 0.02394 9.147676e-41
-0.0066598 -0.0071672 0.025174 9.147676e-41
-0.0048657 -0.0083948 0.025549 9.147676e-41
-0.0016654 -0.010421 0.024624 9.147676e-41
0.001578 -0.010434 0.023901 9.147676e-41
0.0025322 -0.0086315 0.02443 9.147676e-41
0.0044199 -0.0077473 0.025687 9.147676e-41
0.0080877 -0.0063337 0.025304 9.147676e-41
0.0088284 -0.0047693 0.02542 9.147676e-41
0.010383 -0.0033343 0.025176 9.147676e-41
0.011774 0.00045818 0.025945 9.147676e-41
0.0098948 0.0036528 0.026479 9.147676e-41
0.0093528 0.0062207 0.027006 9.147676e-41
0.0077993 0.0076066 0.026479 9.147676e-41
0.0048731 0.0098515 0.027179 9.147676e-41
0.0032236 0.010398 0.025445 9.147676e-41
-0.00034598 0.010799 0.026335 9.147676e-41
-0.0022125 0.0096215 0.025754 9.147676e-41
-0.0052125 0.008313 0.025872 9.147676e-41
-0.0075081 0.0072401 0.025757 9.147676e-41
-0.0094037 0.004466 0.026249 9.147676e-41
-0.010861 0.0034527 0.025463 9.147676e-41
-0.011705 -5.5279e-05 0.026274 9.147676e-41
-0.009163 -0.0025273 0.02607 9.147676e-41
-0.0092278 -0.0051151 0.02651 9.147676e-41
-0.0077261 -0.0068985 0.026308 9.147676e-41
-0.0057096 -0.0086179 0.025842 9.147676e-41
-0.0032615 -0.0092319 0.026249 9.147676e-41
-0.00088761 -0.010081 0.025845 9.147676e-41
0.0024884 -0.010355 0.026467 9.147676e-41
0.0050268 -0.010055 0.025652 9.147676e-41
0.0070302 -0.0077053 0.026235 9.147676e-41
0.0084233 -0.0062976 0.025319 9.147676e-41
0.010204 -0.0036868 0.026308 9.147676e-41
0.011277 -0.0018074 0.026514 9.147676e-41
0.0103 0.0019378 0.026106 9.147676e-41
0.010267 0.0043826 0.026715 9.147676e-41
0.0087068 0.0059697 0.027589 9.147676e-41
0.0065909 0.0087984 0.027424 9.147676e-41
0.0042886 0.0097403 0.026518 9.147676e-41
0.0024169 0.010789 0.027401 9.147676e-41
-0.0016765 0.010535 0.027464 9.147676e-41
-0.0036642 0.0094361 0.026728 9.147676e-41
-0.0068678 0.0085053 0.027532 9.147676e-41
-0.009265 0.0062978 0.027519 9.147676e-41
-0.010155 0.0047734 0.026908 9.147676e-41
-0.010508 0.0020134 0.027358 9.147676e-41
-0.010471 -0.00052567 0.026629 9.147676e-41
-0.010584 -0.0036421 0.028003 9.147676e-41
-0.0091295 -0.0057361 0.027276 9.147676e-41
-0.0064373 -0.0080963 0.027183 9.147676e-41
-0.0046281 -0.010547 0.027796 9.147676e-41
-0.0023902 -0.011224 0.027103 9.147676e-41
0.00012255 -0.010919 0.02732 9.147676e-41
0.0027538 -0.010562 0.027128 9.147676e-41
0.004984 -0.009681 0.02757 9.147676e-41
0.0078154 -0.0076007 0.028075 9.147676e-41
0.0096954 -0.0051418 0.02782 9.147676e-41
0.0099285 -0.0029288 0.026789 9.147676e-41
0.010945 0.00051764 0.027968 9.147676e-41
0.011599 0.0012863 0.027955 9.147676e-41
0.010137 0.0061062 0.028025 9.147676e-41
0.0085564 0.0081044 0.02832 9.147676e-41
0.0059962 0.0095388 0.028105 9.147676e-41
0.0037887 0.011331 0.028684 9.147676e-41
0.0011268 0.011573 0.027642 9.147676e-41
-0.0022632 0.010675 0.027946 9.147676e-41
-0.0043594 0.010612 0.028282 9.147676e-41
-0.0074695 0.0081001 0.029258 9.147676e-41
-0.00976 0.0057516 0.028861 9.147676e-41
-0.011709 0.0037118 0.028403 9.147676e-41
-0.010686 0.00089865 0.028848 9.147676e-41
-0.011541 -0.002335 0.029559 9.147676e-41
-0.010261 -0.0045069 0.029094 9.147676e-41
-0.0086125 -0.0074489 0.02836 9.147676e-41
-0.0067674 -0.010117 0.028489 9.147676e-41
-0.0035016 -0.010791 0.027403 9.147676e-41
-0.0015596 -0.011307 0.027658 9.147676e-41
0.00093829 -0.011606 0.027794 9.147676e-41
0.0054171 -0.010239 0.029219 9.147676e-41
0.0072664 -0.0073927 0.027618 9.147676e-41
0.0090675 -0.0066336 0.026644 9.147676e-41
0.010086 -0.0052843 0.027816 9.147676e-41
0.010649 -0.0023456 0.028185 9.147676e-41
0.011887 0.0009425 0.029034 9.147676e-41
0.011148 0.0035411 0.029056 9.147676e-41
0.010715 0.0067514 0.029089 9.147676e-41
0.0081167 0.0087901 0.029512 9.147676e-41
0.00498 0.010728 0.029072 9.147676e-41
0.0019254 0.011777 0.02853 9.147676e-41
4.1522e-05 0.012171 0.029937 9.147676e-41
-0.0030787 0.011695 0.029929 9.147676e-41
-0.0055995 0.0093285 0.028465 9.147676e-41
-0.0077771 0.0090113 0.029078 9.147676e-41
-0.010793 0.0053036 0.029137 9.147676e-41
-0.011878 0.0034295 0.029399 9.147676e-41
-0.0111 0.00049543 0.028905 9.147676e-41
-0.011926 -0.0024229 0.029447 9.147676e-41
-0.009763 -0.0046679 0.029514 9.147676e-41
-0.0089631 -0.0078624 0.030469 9.147676e-41
-0.0060952 -0.0099865 0.029063 9.147676e-41
-0.0041096 -0.011669 0.029943 9.147676e-41
-0.00073199 -0.012574 0.028861 9.147676e-41
0.0026352 -0.012081 0.030203 9.147676e-41
0.0049225 -0.0106 0.028754 9.147676e-41
0.0069369 -0.0082601 0.029641 9.147676e-41
0.0098022 -0.0065317 0.029941 9.147676e-41
0.010872 -0.0042625 0.029557 9.147676e-41
0.01178 -0.0010491 0.029046 9.147676e-41
0.011883 0.0016084 0.0304 9.147676e-41
0.01219 0.0047637 0.029763 9.147676e-41
0.010904 0.0073643 0.029624 9.147676e-41
0.00805 0.0099315 0.029901 9.147676e-41
0.0049309 0.010905 0.030229 9.147676e-41
0.0024857 0.012658 0.029994 9.147676e-41
-0.001452 0.012041 0.030212 9.147676e-41
-0.0030518 0.011841 0.030697 9.147676e-41
-0.0065727 0.010623 0.029456 9.147676e-41
-0.009209 0.0081055 0.030423 9.147676e-41
-0.011288 0.006455 0.029151 9.147676e-41
-0.013179 0.0026315 0.030228 9.147676e-41
-0.011881 -0.00010341 0.030194 9.147676e-41
-0.011248 -0.0033877 0.030696 9.147676e-41
-0.011041 -0.0067104 0.030786 9.147676e-41
-0.008853 -0.008716 0.030572 9.147676e-41
-0.0065416 -0.010735 0.029533 9.147676e-41
-0.0026448 -0.011975 0.03084 9.147676e-41
0.00024219 -0.011733 0.030692 9.147676e-41
0.0036063 -0.011739 0.030425 9.147676e-41
0.0052614 -0.010837 0.030092 9.147676e-41
0.0071945 -0.0095884 0.029722 9.147676e-41
0.011179 -0.006305 0.03029 9.147676e-41
0.0115 -0.0040357 0.029289 9.147676e-41
0.012099 8.691e-05 0.030057 9.147676e-41
0.012066 0.0015472 0.03063 9.147676e-41
0.011591 0.0037789 0.030688 9.147676e-41
0.010872 0.0074339 0.031474 9.147676e-41
0.0086498 0.0083355 0.032127 9.147676e-41
0.0068679 0.01065 0.030958 9.147676e-41
0.005145 0.012141 0.031718 9.147676e-41
0.00321 0.012662 0.031391 9.147676e-41
7.1449e-05 0.012586 0.031921 9.147676e-41
-0.0023508 0.012792 0.031065 9.147676e-41
-0.0050518 0.011665 0.031202 9.147676e-41
-0.0063292 0.009803 0.031056 9.147676e-41
-0.0097382 0.0084161 0.031148 9.147676e-41
-0.010525 0.0074925 0.030581 9.147676e-41
-0.012071 0.0043329 0.030773 9.147676e-41
-0.013453 0.0021364 0.030331 9.147676e-41
-0.01289 -0.00097274 0.030903 9.147676e-41
-0.012851 -0.0036224 0.030966 9.147676e-41
-0.011134 -0.0063161 0.030773 9.147676e-41
-0.010113 -0.0081601 0.031822 9.147676e-41
-0.0077779 -0.0089153 0.031068 9.147676e-41
-0.0057228 -0.011572 0.031815 9.147676e-41
-0.0044134 -0.011362 0.031484 9.147676e-41
-0.0013726 -0.012407 0.030804 9.147676e-41
0.0019177 -0.012349 0.032068 9.147676e-41
0.0044186 -0.011124 0.031547 9.147676e-41
0.0060921 -0.010466 0.032297 9.147676e-41
0.0073487 -0.0091176 0.031119 9.147676e-41
0.010191 -0.0079999 0.031665 9.147676e-41
0.01171 -0.0052046 0.031227 9.147676e-41
0.012505 -0.003408 0.031831 9.147676e-41
0.0137 -0.00018834 0.032517 9.147676e-41
0.012645 0.002973 0.031115 9.147676e-41
0.012224 0.0053603 0.032277 9.147676e-41
0.010937 0.0073156 0.032161 9.147676e-41
0.0090097 0.0093535 0.031832 9.147676e-41
0.0064779 0.011413 0.032409 9.147676e-41
0.0048313 0.012123 0.032805 9.147676e-41
0.0014357 0.011904 0.032505 9.147676e-41
-0.00085789 0.013704 0.032426 9.147676e-41
-0.0033323 0.012357 0.031922 9.147676e-41
-0.0060396 0.011799 0.032527 9.147676e-41
-0.0082546 0.009944 0.032411 9.147676e-41
-0.0095858 0.00846 0.031893 9.147676e-41
-0.010489 0.0067541 0.032516 9.147676e-41
-0.013067 0.0037123 0.031771 9.147676e-41
-0.012615 0.0012608 0.03268 9.147676e-41
-0.013382 -0.00027769 0.03228 9.147676e-41
-0.012147 -0.0039767 0.032897 9.147676e-41
-0.011231 -0.0068412 0.031053 9.147676e-41
-0.010091 -0.0094162 0.03228 9.147676e-41
-0.0071122 -0.010698 0.03243 9.147676e-41
-0.0055459 -0.011137 0.032084 9.147676e-41
-0.0034323 -0.012564 0.031811 9.147676e-41
0.00030654 -0.013264 0.031549 9.147676e-41
0.0021825 -0.013177 0.031824 9.147676e-41
0.0044724 -0.012384 0.032296 9.147676e-41
0.0069172 -0.010184 0.032801 9.147676e-41
0.0094209 -0.0099319 0.033094 9.147676e-41
0.011405 -0.0063345 0.031334 9.147676e-41
0.012642 -0.0048222 0.031801 9.147676e-41
0.012564 -0.0023071 0.032726 9.147676e-41
0.013709 0.000953 0.033484 9.147676e-41
0.013277 0.0027961 0.032357 9.147676e-41
0.012197 0.0067543 0.033434 9.147676e-41
0.010425 0.0088099 0.033902 9.147676e-41
0.0093133 0.010321 0.033327 9.147676e-41
0.0062613 0.011624 0.033739 9.147676e-41
0.0042911 0.013244 0.033378 9.147676e-41
0.00053626 0.013571 0.033045 9.147676e-41
-0.0013356 0.013138 0.03274 9.147676e-41
-0.0041367 0.012668 0.032318 9.147676e-41
-0.0067172 0.012272 0.033369 9.147676e-41
-0.0083312 0.01039 0.031963 9.147676e-41
-0.010722 0.0081483 0.033737 9.147676e-41
-0.011996 0.0049466 0.033431 9.147676e-41
-0.013086 0.002794 0.032476 9.147676e-41
-0.013265 0.00061936 0.03288 9.147676e-41
-0.012984 -0.0024045 0.032959 9.147676e-41
-0.012718 -0.0054828 0.03338 9.147676e-41
-0.010822 -0.0065988 0.033113 9.147676e-41
-0.010018 -0.0086709 0.033291 9.147676e-41
-0.0076404 -0.012083 0.032709 9.147676e-41
-0.0054236 -0.011526 0.032459 9.147676e-41
-0.0024492 -0.01322 0.034652 9.147676e-41
0.00033157 -0.013122 0.032276 9.147676e-41
0.0036639 -0.013931 0.033521 9.147676e-41
0.0054965 -0.01126 0.032301 9.147676e-41
0.0074766 -0.010564 0.033124 9.147676e-41
0.0097532 -0.0087696 0.03428 9.147676e-41
0.011377 -0.0066192 0.033622 9.147676e-41
0.012352 -0.0043619 0.032949 9.147676e-41
0.013438 -0.00086748 0.03288 9.147676e-41
0.013283 0.00084707 0.033762 9.147676e-41
0.011914 0.0043642 0.033857 9.147676e-41
0.012359 0.0069441 0.034276 9.147676e-41
0.010159 0.0094523 0.034964 9.147676e-41
0.0083154 0.010309 0.034779 9.147676e-41
0.0064571 0.012931 0.034771 9.147676e-41
0.0040997 0.013288 0.033833 9.147676e-41
0.00063691 0.014388 0.034926 9.147676e-41
-0.002835 0.013658 0.033731 9.147676e-41
-0.005263 0.013145 0.034646 9.147676e-41
-0.0074385 0.011517 0.034892 9.147676e-41
-0.0087682 0.0098492 0.033803 9.147676e-41
-0.011629 0.00732 0.033353 9.147676e-41
-0.013102 0.0052176 0.033619 9.147676e-41
-0.014283 0.001816 0.034542 9.147676e-41
-0.014265 -0.0010439 0.033227 9.147676e-41
-0.013228 -0.0021053 0.034659 9.147676e-41
-0.013151 -0.0048952 0.034244 9.147676e-41
-0.012296 -0.0079055 0.034876 9.147676e-41
-0.0092588 -0.010059 0.034028 9.147676e-41
-0.0067738 -0.01243 0.034169 9.147676e-41
-0.0038085 -0.012644 0.034648 9.147676e-41
-0.00068559 -0.013592 0.033523 9.147676e-41
0.00063004 -0.014108 0.034833 9.147676e-41
0.0041199 -0.013881 0.034721 9.147676e-41
0.0059053 -0.012463 0.034166 9.147676e-41
0.0089003 -0.010466 0.034023 9.147676e-41
0.011013 -0.0086964 0.033294 9.147676e-41
0.01226 -0.0058231 0.034089 9.147676e-41
0.012849 -0.0030258 0.034909 9.147676e-41
0.013111 -0.0005386 0.03454 9.147676e-41
0.013933 0.0025567 0.035207 9.147676e-41
0.013109 0.0052128 0.035668 9.147676e-41
0.012186 0.0071018 0.035173 9.147676e-41
0.010478 0.010156 0.035293 9.147676e-41
0.0078147 0.011331 0.034867 9.147676e-41
0.005266 0.012722 0.034808 9.147676e-41
0.0024828 0.014544 0.035119 9.147676e-41
0.0009880899 0.013468 0.036163 9.147676e-41
-0.0023833 0.014407 0.034695 9.147676e-41
-0.006386 0.013134 0.035766 9.147676e-41
-0.0084863 0.011537 0.036509 9.147676e-41
-0.010662 0.0098473 0.034282 9.147676e-41
-0.012113 0.0081549 0.035056 9.147676e-41
-0.013421 0.0050606 0.035282 9.147676e-41
-0.013973 0.0012274 0.034781 9.147676e-41
-0.014172 -0.00044348 0.034972 9.147676e-41
-0.014436 -0.0042629 0.035164 9.147676e-41
-0.012743 -0.0060042 0.034774 9.147676e-41
-0.011091 -0.0099097 0.035304 9.147676e-41
-0.0087917 -0.011743 0.036424 9.147676e-41
-0.0063181 -0.012771 0.035943 9.147676e-41
-0.0032849 -0.014211 0.036073 9.147676e-41
-0.00077029 -0.014066 0.035368 9.147676e-41
0.0022595 -0.01366 0.034594 9.147676e-41
0.0050113 -0.012726 0.035796 9.147676e-41
0.0076911 -0.012468 0.035551 9.147676e-41
0.0102 -0.010379 0.034877 9.147676e-41
0.011289 -0.0079195 0.035547 9.147676e-41
0.013746 -0.0061225 0.035051 9.147676e-41
0.01314 -0.0030765 0.035321 9.147676e-41
0.01424 0.00040688 0.037295 9.147676e-41
0.013448 0.0024055 0.035607 9.147676e-41
0.01368 0.0056728 0.036455 9.147676e-41
0.011866 0.0082015 0.035179 9.147676e-41
0.0096519 0.010816 0.035982 9.147676e-41
0.0072358 0.011632 0.036248 9.147676e-41
0.0043651 0.014289 0.036394 9.147676e-41
0.0022855 0.014185 0.036762 9.147676e-41
-0.0011346 0.01513 0.0362 9.147676e-41
-0.0036616 0.014406 0.036339 9.147676e-41
-0.0065763 0.012672 0.037003 9.147676e-41
-0.0094244 0.012053 0.036474 9.147676e-41
-0.012581 0.0097786 0.03636 9.147676e-41
-0.013409 0.0067348 0.035838 9.147676e-41
-0.013839 0.0043005 0.03658 9.147676e-41
-0.014603 0.00089836 0.037092 9.147676e-41
-0.01555 -0.0025807 0.036049 9.147676e-41
-0.014274 -0.0050876 0.035795 9.147676e-41
-0.01368 -0.0076559 0.036853 9.147676e-41
-0.011767 -0.0097371 0.036963 9.147676e-41
-0.0090348 -0.011956 0.036077 9.147676e-41
-0.0054393 -0.013847 0.03577 9.147676e-41
-0.0030242 -0.014863 0.036427 9.147676e-41
0.00038391 -0.014332 0.036422 9.147676e-41
0.0025238 -0.014458 0.035205 9.147676e-41
0.0059459 -0.013041 0.035923 9.147676e-41
0.0086951 -0.012166 0.036125 9.147676e-41
0.010633 -0.010732 0.036056 9.147676e-41
0.013058 -0.0081215 0.035314 9.147676e-41
0.0142 -0.0050611 0.03741 9.147676e-41
0.014474 -0.001985 0.036566 9.147676e-41
0.014432 0.00030527 0.037866 9.147676e-41
0.013933 0.0041587 0.037703 9.147676e-41
0.013775 0.0062921 0.037106 9.147676e-41
0.011269 0.0091166 0.036651 9.147676e-41
0.0094135 0.011856 0.037527 9.147676e-41
0.0076609 0.013436 0.037266 9.147676e-41
0.0041866 0.014052 0.037435 9.147676e-41
0.0012141 0.014342 0.037417 9.147676e-41
-0.00086654 0.014576 0.037412 9.147676e-41
-0.0046657 0.014741 0.038235 9.147676e-41
-0.0067821 0.0131 0.037151 9.147676e-41
-0.010772 0.011352 0.036912 9.147676e-41
-0.012198 0.0078021 0.037191 9.147676e-41
-0.014227 0.0063311 0.037329 9.147676e-41
-0.014079 0.0045185 0.037403 9.147676e-41
-0.015272 0.00033804 0.037659 9.147676e-41
-0.01482 -0.0034156 0.037401 9.147676e-41
-0.013641 -0.0063292 0.036593 9.147676e-41
-0.012654 -0.0086128 0.036826 9.147676e-41
-0.010361 -0.011455 0.037223 9.147676e-41
-0.0085861 -0.012468 0.03715 9.147676e-41
-0.0045514 -0.014058 0.036573 9.147676e-41
-0.0031484 -0.014682 0.037087 9.147676e-41
0.001567 -0.014803 0.037074 9.147676e-41
0.0040435 -0.013956 0.037457 9.147676e-41
0.0066085 -0.013263 0.037699 9.147676e-41
0.0091334 -0.012556 0.037943 9.147676e-41
0.01093 -0.0098531 0.038194 9.147676e-41
0.011892 -0.006444 0.037703 9.147676e-41
0.014858 -0.0039555 0.036934 9.147676e-41
0.014777 -0.0014807 0.037361 9.147676e-41
0.015427 0.00058859 0.038325 9.147676e-41
0.014699 0.0041536 0.038349 9.147676e-41
0.01482 0.0076618 0.038908 9.147676e-41
0.012734 0.0097828 0.038199 9.147676e-41
0.010385 0.012248 0.037849 9.147676e-41
0.0073006 0.013753 0.038297 9.147676e-41
0.0051949 0.014219 0.038299 9.147676e-41
0.00093846 0.015488 0.037866 9.147676e-41
-0.001725 0.01469 0.03816 9.147676e-41
-0.0042291 0.014719 0.038457 9.147676e-41
-0.0079602 0.013554 0.038305 9.147676e-41
-0.010463 0.011623 0.038091 9.147676e-41
-0.012517 0.0095947 0.038888 9.147676e-41
-0.013617 0.0068217 0.038364 9.147676e-41
-0.014514 0.0026606 0.038252 9.147676e-41
-0.01521 -0.00011344 0.038037 9.147676e-41
-0.014783 -0.0026009 0.038666 9.147676e-41
-0.015035 -0.0069438 0.039088 9.147676e-41
-0.013028 -0.0088636 0.037466 9.147676e-41
-0.0109 -0.011322 0.038077 9.147676e-41
-0.007518 -0.01377 0.038658 9.147676e-41
-0.0056054 -0.014272 0.037224 9.147676e-41
-0.00215 -0.015163 0.037634 9.147676e-41
-1.7435e-05 -0.015497 0.038609 9.147676e-41
0.0038379 -0.015426 0.03779 9.147676e-41
0.0068391 -0.014109 0.038002 9.147676e-41
0.0085947 -0.012846 0.038994 9.147676e-41
0.01205 -0.010575 0.038495 9.147676e-41
0.013031 -0.0074151 0.038593 9.147676e-41
0.015432 -0.004477 0.038009 9.147676e-41
0.015645 -0.0008357 0.038382 9.147676e-41
0.016336 0.0012685 0.038869 9.147676e-41
0.015548 0.0040064 0.03956 9.147676e-41
0.014842 0.0074038 0.038844 9.147676e-41
0.011584 0.009268 0.038513 9.147676e-41
0.009824 0.012704 0.038413 9.147676e-41
0.0081103 0.014205 0.039114 9.147676e-41
0.0054752 0.015682 0.038652 9.147676e-41
0.0017368 0.016841 0.039671 9.147676e-41
-0.0022468 0.015862 0.039507 9.147676e-41
-0.0041802 0.015175 0.039346 9.147676e-41
-0.0081945 0.012874 0.038843 9.147676e-41
-0.010621 0.012697 0.039347 9.147676e-41
-0.012466 0.009216 0.038812 9.147676e-41
-0.014038 0.0066169 0.039514 9.147676e-41
-0.015537 0.0037609 0.04042 9.147676e-41
-0.016621 0.0003785 0.039918 9.147676e-41
-0.014946 -0.002224 0.039187 9.147676e-41
-0.014305 -0.0062728 0.0393 9.147676e-41
-0.012404 -0.0087324 0.039374 9.147676e-41
-0.011623 -0.011557 0.039307 9.147676e-41
-0.0086695 -0.013259 0.039322 9.147676e-41
-0.0064612 -0.015119 0.03877 9.147676e-41
-0.0025546 -0.016027 0.040103 9.147676e-41
0.00013359 -0.015788 0.039148 9.147676e-41
0.0041104 -0.014731 0.039648 9.147676e-41
0.0070468 -0.014102 0.038589 9.147676e-41
0.0094437 -0.013108 0.04011 9.147676e-41
0.011802 -0.010137 0.039566 9.147676e-41
0.01416 -0.0070016 0.039538 9.147676e-41
0.014978 -0.0045793 0.039099 9.147676e-41
0.016839 -0.0017424 0.039316 9.147676e-41
0.014977 0.0012669 0.040106 9.147676e-41
0.016709 0.003597 0.040628 9.147676e-41
0.014688 0.0079809 0.040436 9.147676e-41
0.013006 0.010179 0.041131 9.147676e-41
0.009542 0.011994 0.040571 9.147676e-41
0.0080125 0.014521 0.040894 9.147676e-41
0.0051375 0.015385 0.040456 9.147676e-41
0.0013941 0.016277 0.04116 9.147676e-41
-0.0012679 0.015857 0.040656 9.147676e-41
-0.0044943 0.014544 0.040817 9.147676e-41
-0.0084311 0.013891 0.039638 9.147676e-41
-0.011018 0.012326 0.0393 9.147676e-41
-0.013042 0.0086523 0.040444 9.147676e-41
-0.015327 0.0061167 0.040523 9.147676e-41
-0.015891 0.0039453 0.040896 9.147676e-41
-0.015753 -7.3592e-05 0.040934 9.147676e-41
-0.016371 -0.0035494 0.040178 9.147676e-41
-0.014967 -0.0058582 0.040263 9.147676e-41
-0.014293 -0.0096585 0.039922 9.147676e-41
-0.011919 -0.010895 0.040536 9.147676e-41
-0.0094027 -0.014 0.040496 9.147676e-41
-0.0056268 -0.015747 0.039543 9.147676e-41
-0.0026587 -0.016496 0.040601 9.147676e-41
0.0010328 -0.01693 0.040627 9.147676e-41
0.0040846 -0.015781 0.039784 9.147676e-41
0.007527 -0.014118 0.0406 9.147676e-41
0.0095602 -0.013302 0.040884 9.147676e-41
0.011913 -0.011305 0.040803 9.147676e-41
0.014628 -0.0080366 0.040206 9.147676e-41
0.015744 -0.0043955 0.041597 9.147676e-41
0.017093 -0.0012592 0.040239 9.147676e-41
0.01652 0.0011509 0.041382 9.147676e-41
0.015983 0.0042277 0.041146 9.147676e-41
0.014944 0.006591 0.041904 9.147676e-41
0.013668 0.0092758 0.041405 9.147676e-41
0.010577 0.013138 0.041469 9.147676e-41
0.0085112 0.014171 0.041657 9.147676e-41
0.0046996 0.015946 0.041935 9.147676e-41
0.0024896 0.017131 0.041479 9.147676e-41
-0.0010091 0.017227 0.041167 9.147676e-41
-0.0053252 0.016368 0.042387 9.147676e-41
-0.0078999 0.013719 0.040592 9.147676e-41
-0.01065 0.012226 0.041341 9.147676e-41
-0.012714 0.0094592 0.041509 9.147676e-41
-0.016434 0.0069862 0.041572 9.147676e-41
-0.015422 0.0043237 0.041182 9.147676e-41
-0.017098 0.00071922 0.042062 9.147676e-41
-0.01595 -0.0029462 0.042221 9.147676e-41
-0.015104 -0.0058854 0.04172 9.147676e-41
-0.014295 -0.009791 0.04174 9.147676e-41
-0.01173 -0.011519 0.041461 9.147676e-41
-0.0091507 -0.014566 0.04142 9.147676e-41
-0.0054631 -0.015642 0.042528 9.147676e-41
-0.0022046 -0.016633 0.040901 9.147676e-41
0.0011376 -0.016517 0.041176 9.147676e-41
0.0034821 -0.015639 0.04116 9.147676e-41
0.0070802 -0.014864 0.041514 9.147676e-41
0.010779 -0.013783 0.040907 9.147676e-41
0.013483 -0.010754 0.041641 9.147676e-41
0.013653 -0.0081002 0.041295 9.147676e-41
0.015836 -0.0052036 0.04135 9.147676e-41
0.01528 -0.0026087 0.04095 9.147676e-41
0.017173 0.00039137 0.042577 9.147676e-41
0.015821 0.0043615 0.041522 9.147676e-41
0.016213 0.0058238 0.042249 9.147676e-41
0.015144 0.0088884 0.042964 9.147676e-41
0.013092 0.01039 0.041913 9.147676e-41
0.011662 0.012362 0.041685 9.147676e-41
0.010273 0.01428 0.042015 9.147676e-41
0.0065691 0.014779 0.042528 9.147676e-41
0.0050465 0.0152 0.041894 9.147676e-41
0.0027821 0.01739 0.041923 9.147676e-41
-0.00010705 0.017086 0.042638 9.147676e-41
-0.0024742 0.016784 0.042991 9.147676e-41
-0.0047751 0.015833 0.043169 9.147676e-41
-0.0081779 0.015787 0.042199 9.147676e-41
-0.010007 0.013156 0.042359 9.147676e-41
-0.012192 0.013635 0.041814 9.147676e-41
-0.013271 0.0095438 0.042159 9.147676e-41
-0.015124 0.0080067 0.043747 9.147676e-41
-0.016036 0.0053912 0.042107 9.147676e-41
-0.016507 0.0033502 0.042148 9.147676e-41
-0.017331 0.00039641 0.042481 9.147676e-41
-0.018398 -0.0024923 0.041985 9.147676e-41
-0.016355 -0.0050421 0.041442 9.147676e-41
-0.015446 -0.0076547 0.042598 9.147676e-41
-0.013741 -0.0098015 0.042314 9.147676e-41
-0.012353 -0.012559 0.042517 9.147676e-41
-0.010592 -0.013723 0.041987 9.147676e-41
-0.0088951 -0.014495 0.041866 9.147676e-41
-0.0067914 -0.016088 0.041706 9.147676e-41
-0.0043598 -0.01662 0.04215 9.147676e-41
-0.0006563 -0.017656 0.041271 9.147676e-41
0.0022112 -0.017057 0.042142 9.147676e-41
0.0044229 -0.016312 0.042705 9.147676e-41
0.0071446 -0.015521 0.043301 9.147676e-41
0.0093137 -0.014033 0.041815 9.147676e-41
0.0097067 -0.013318 0.042826 9.147676e-41
0.01379 -0.011344 0.042311 9.147676e-41
0.014625 -0.0094627 0.042326 9.147676e-41
0.015164 -0.0068958 0.04308 9.147676e-41
0.016684 -0.0044573 0.043144 9.147676e-41
0.01703 -0.0020623 0.042509 9.147676e-41
0.017129 0.0012564 0.042901 9.147676e-41
0.01747 0.0036827 0.043075 9.147676e-41
0.017009 0.0065288 0.044296 9.147676e-41
0.01562 0.0078023 0.043125 9.147676e-41
0.012654 0.01031 0.043264 9.147676e-41
0.011749 0.012825 0.043097 9.147676e-41
0.01021 0.015061 0.043146 9.147676e-41
0.0079166 0.01549 0.043147 9.147676e-41
0.0059225 0.017327 0.043582 9.147676e-41
0.0014566 0.01818 0.043643 9.147676e-41
-0.00087972 0.016639 0.043504 9.147676e-41
-0.0036976 0.017842 0.043898 9.147676e-41
-0.0063717 0.017336 0.042744 9.147676e-41
-0.0073638 0.015253 0.043363 9.147676e-41
-0.0095176 0.014452 0.044159 9.147676e-41
-0.011253 0.012422 0.042835 9.147676e-41
-0.014007 0.010218 0.043985 9.147676e-41
-0.015313 0.0083055 0.042946 9.147676e-41
-0.01691 0.0060178 0.043934 9.147676e-41
-0.018208 0.0027104 0.043738 9.147676e-41
-0.016784 0.00097019 0.042947 9.147676e-41
-0.01801 -0.0023478 0.042883 9.147676e-41
-0.01725 -0.0051345 0.043458 9.147676e-41
-0.016026 -0.0074936 0.043862 9.147676e-41
-0.014153 -0.010043 0.042758 9.147676e-41
-0.012171 -0.011361 0.042856 9.147676e-41
-0.010512 -0.013359 0.043448 9.147676e-41
-0.0084765 -0.015829 0.042983 9.147676e-41
-0.0065435 -0.01757 0.044689 9.147676e-41
-0.0044292 -0.016923 0.042826 9.147676e-41
-0.001622 -0.018107 0.043168 9.147676e-41
0.001038 -0.016722 0.043359 9.147676e-41
0.0040925 -0.016261 0.043153 9.147676e-41
0.0075109 -0.016048 0.043168 9.147676e-41
0.0093773 -0.01501 0.043606 9.147676e-41
0.011185 -0.012317 0.043517 9.147676e-41
0.013535 -0.011423 0.042985 9.147676e-41
0.014158 -0.0083105 0.043816 9.147676e-41
0.016195 -0.0062708 0.043305 9.147676e-41
0.01715 -0.0045062 0.042593 9.147676e-41
0.017202 -0.0024625 0.042653 9.147676e-41
0.018368 4.571e-05 0.043738 9.147676e-41
0.017478 0.0040456 0.043367 9.147676e-41
0.017708 0.00531 0.043935 9.147676e-41
0.015363 0.0083567 0.044488 9.147676e-41
0.014217 0.011066 0.044215 9.147676e-41
0.01231 0.013372 0.044333 9.147676e-41
0.010087 0.014751 0.043913 9.147676e-41
0.0082113 0.015591 0.045453 9.147676e-41
0.004907 0.017438 0.044752 9.147676e-41
0.0027654 0.017764 0.04416 9.147676e-41
-0.00014992 0.01683 0.044802 9.147676e-41
-0.0032518 0.016362 0.045206 9.147676e-41
-0.0063462 0.01709 0.044737 9.147676e-41
-0.0079963 0.016278 0.044121 9.147676e-41
-0.010244 0.014619 0.04459 9.147676e-41
-0.013041 0.013874 0.043439 9.147676e-41
-0.014756 0.010078 0.044072 9.147676e-41
-0.01551 0.0087301 0.044325 9.147676e-41
-0.016641 0.0049042 0.044178 9.147676e-41
-0.017713 0.0031285 0.044291 9.147676e-41
-0.018041 0.00024564 0.044931 9.147676e-41
-0.018101 -0.0020289 0.044424 9.147676e-41
-0.017461 -0.0055228 0.043957 9.147676e-41
-0.016753 -0.0078713 0.043668 9.147676e-41
-0.01508 -0.0097774 0.044559 9.147676e-41
-0.013872 -0.011881 0.044237 9.147676e-41
-0.011248 -0.013422 0.045158 9.147676e-41
-0.0090164 -0.014956 0.044381 9.147676e-41
-0.0069812 -0.016726 0.044517 9.147676e-41
-0.0034072 -0.01787 0.043709 9.147676e-41
-0.00056296 -0.01728 0.045692 9.147676e-41
0.0023098 -0.018436 0.044275 9.147676e-41
0.0033645 -0.017751 0.044674 9.147676e-41
0.0069661 -0.016213 0.043677 9.147676e-41
0.0088809 -0.014191 0.044996 9.147676e-41
0.01162 -0.014139 0.044902 9.147676e-41
0.013832 -0.012236 0.044102 9.147676e-41
0.015096 -0.010412 0.044445 9.147676e-41
0.016806 -0.0069741 0.043171 9.147676e-41
0.01731 -0.0039655 0.043817 9.147676e-41
0.017867 -0.0021524 0.043871 9.147676e-41
0.018569 0.0012873 0.044035 9.147676e-41
0.018132 0.0041434 0.045831 9.147676e-41
0.016929 0.0052364 0.045559 9.147676e-41
0.016153 0.008569 0.045414 9.147676e-41
0.014687 0.011602 0.044967 9.147676e-41
0.012189 0.013242 0.046169 9.147676e-41
0.010108 0.015199 0.046131 9.147676e-41
0.0062122 0.017367 0.046211 9.147676e-41
0.0055045 0.01675 0.04438 9.147676e-41
0.0024818 0.017224 0.045134 9.147676e-41
0.00061792 0.017657 0.045019 9.147676e-41
-0.0042742 0.017407 0.045792 9.147676e-41
-0.0065898 0.017577 0.044618 9.147676e-41
-0.0083149 0.016795 0.046223 9.147676e-41
-0.010393 0.014707 0.04509 9.147676e-41
-0.012374 0.012604 0.045709 9.147676e-41
-0.014388 0.010692 0.045838 9.147676e-41
-0.016712 0.0081665 0.04498 9.147676e-41
-0.016988 0.0059649 0.045547 9.147676e-41
-0.017433 0.0028214 0.044698 9.147676e-41
-0.018334 0.00073069 0.045122 9.147676e-41
-0.017374 -0.0017571 0.045179 9.147676e-41
-0.017781 -0.006196 0.04478 9.147676e-41
-0.017592 -0.0081402 0.045483 9.147676e-41
-0.014521 -0.010711 0.04472 9.147676e-41
-0.014105 -0.012051 0.04562 9.147676e-41
-0.012238 -0.014232 0.046665 9.147676e-41
-0.0088529 -0.015773 0.045622 9.147676e-41
-0.0067241 -0.017189 0.045901 9.147676e-41
-0.0040421 -0.017647 0.045137 9.147676e-41
-0.00091164 -0.018248 0.044963 9.147676e-41
0.0019588 -0.01792 0.045997 9.147676e-41
0.005329 -0.018444 0.044767 9.147676e-41
0.0067333 -0.017034 0.046177 9.147676e-41
0.0094796 -0.015803 0.045093 9.147676e-41
0.011857 -0.014315 0.044342 9.147676e-41
0.013321 -0.012588 0.04613 9.147676e-41
0.01552 -0.0095889 0.045406 9.147676e-41
0.017853 -0.0069055 0.045824 9.147676e-41
0.017257 -0.0041444 0.044388 9.147676e-41
0.017779 -0.0023501 0.044412 9.147676e-41
0.018743 0.0016047 0.047221 9.147676e-41
0.018474 0.0040881 0.046376 9.147676e-41
0.016468 0.0070801 0.046456 9.147676e-41
0.016554 0.0094783 0.046414 9.147676e-41
0.014363 0.011438 0.04633 9.147676e-41
0.012585 0.014069 0.046055 9.147676e-41
0.010722 0.015442 0.046644 9.147676e-41
0.0078136 0.017741 0.046057 9.147676e-41
0.0064088 0.017087 0.045824 9.147676e-41
0.0021564 0.018137 0.046499 9.147676e-41
0.00055609 0.018465 0.045406 9.147676e-41
-0.0019043 0.018553 0.046173 9.147676e-41
-0.0063499 0.018511 0.045497 9.147676e-41
-0.0085527 0.016556 0.046444 9.147676e-41
-0.011213 0.015296 0.04728 9.147676e-41
-0.013684 0.012207 0.047374 9.147676e-41
-0.015357 0.010747 0.045783 9.147676e-41
-0.016685 0.0095704 0.046458 9.147676e-41
-0.017689 0.0057781 0.045829 9.147676e-41
-0.018134 0.003417 0.046752 9.147676e-41
-0.018626 9.8292e-05 0.046049 9.147676e-41
-0.01827 -0.0022382 0.046569 9.147676e-41
-0.016976 -0.0057318 0.046235 9.147676e-41
-0.01684 -0.0083527 0.046463 9.147676e-41
-0.014985 -0.0095452 0.046906 9.147676e-41
-0.013105 -0.012616 0.046598 9.147676e-41
-0.011578 -0.015202 0.046448 9.147676e-41
-0.010758 -0.015712 0.045912 9.147676e-41
-0.0066121 -0.018015 0.046456 9.147676e-41
-0.0038181 -0.017858 0.046901 9.147676e-41
-0.00096334 -0.018951 0.04612 9.147676e-41
0.001338 -0.018197 0.046864 9.147676e-41
0.0048532 -0.018754 0.04628 9.147676e-41
0.0071793 -0.017729 0.046565 9.147676e-41
0.009617 -0.016313 0.046631 9.147676e-41
0.011264 -0.013724 0.046411 9.147676e-41
0.014302 -0.012675 0.046272 9.147676e-41
0.015028 -0.0092684 0.046323 9.147676e-41
0.017394 -0.0067247 0.046396 9.147676e-41
0.01809 -0.0055823 0.046316 9.147676e-41
0.018644 -0.0015529 0.046006 9.147676e-41
0.018207 0.00082665 0.047097 9.147676e-41
0.01891 0.0038195 0.047541 9.147676e-41
0.018049 0.0060296 0.047021 9.147676e-41
0.016556 0.0096265 0.047166 9.147676e-41
0.014667 0.011632 0.047854 9.147676e-41
0.012171 0.014038 0.047644 9.147676e-41
0.010289 0.01535 0.047496 9.147676e-41
0.00876 0.01719 0.048208 9.147676e-41
0.0051714 0.017391 0.046998 9.147676e-41
0.0030698 0.018958 0.046756 9.147676e-41
0.00025308 0.019667 0.046667 9.147676e-41
-0.0022913 0.018597 0.04704 9.147676e-41
-0.0059144 0.018512 0.04774 9.147676e-41
-0.0081185 0.01729 0.047003 9.147676e-41
-0.0099964 0.01575 0.047677 9.147676e-41
-0.013608 0.013331 0.046893 9.147676e-41
-0.016242 0.011389 0.045986 9.147676e-41
-0.016796 0.0088662 0.048148 9.147676e-41
-0.017812 0.0064345 0.047649 9.147676e-41
-0.018705 0.0034888 0.048153 9.147676e-41
-0.019395 -0.00061684 0.047197 9.147676e-41
-0.018903 -0.0023182 0.047774 9.147676e-41
-0.018581 -0.0055867 0.047038 9.147676e-41
-0.017292 -0.0075791 0.047704 9.147676e-41
-0.016447 -0.010629 0.047385 9.147676e-41
-0.014406 -0.012159 0.047443 9.147676e-41
-0.012566 -0.013983 0.047804 9.147676e-41
-0.0094219 -0.016795 0.046538 9.147676e-41
-0.0063415 -0.017717 0.047418 9.147676e-41
-0.0044457 -0.018757 0.048032 9.147676e-41
-0.0011532 -0.018651 0.047188 9.147676e-41
0.0012836 -0.018668 0.047943 9.147676e-41
0.0035012 -0.018686 0.048158 9.147676e-41
0.0080228 -0.01718 0.0476 9.147676e-41
0.010584 -0.015456 0.047419 9.147676e-41
0.012368 -0.014888 0.047524 9.147676e-41
0.015264 -0.012005 0.047471 9.147676e-41
0.015503 -0.0098329 0.047976 9.147676e-41
0.018058 -0.0076793 0.047435 9.147676e-41
0.017856 -0.0048589 0.047214 9.147676e-41
0.018805 -0.0017545 0.046779 9.147676e-41
0.018936 0.00072345 0.048461 9.147676e-41
0.019219 0.0037889 0.048511 9.147676e-41
0.018577 0.0065201 0.048232 9.147676e-41
0.016098 0.0093596 0.048002 9.147676e-41
0.014858 0.012527 0.048466 9.147676e-41
0.013774 0.014224 0.048743 9.147676e-41
0.010424 0.016035 0.048148 9.147676e-41
0.0086602 0.018057 0.047656 9.147676e-41
0.0050317 0.018522 0.048042 9.147676e-41
0.0029409 0.019121 0.048722 9.147676e-41
0.00076695 0.019437 0.047942 9.147676e-41
-0.0031226 0.019729 0.04815 9.147676e-41
-0.0055783 0.018218 0.048822 9.147676e-41
-0.0087655 0.017506 0.049138 9.147676e-41
-0.012169 0.015484 0.049129 9.147676e-41
-0.014045 0.013587 0.049073 9.147676e-41
-0.014015 0.011871 0.048354 9.147676e-41
-0.017336 0.009186 0.047605 9.147676e-41
-0.018252 0.0069972 0.049083 9.147676e-41
-0.019968 0.0038931 0.048414 9.147676e-41
-0.01937 0.00076549 0.048908 9.147676e-41
-0.019715 -0.0024631 0.048641 9.147676e-41
-0.020234 -0.0054211 0.0484 9.147676e-41
-0.018226 -0.0072886 0.04801 9.147676e-41
-0.015978 -0.010758 0.049797 9.147676e-41
-0.013393 -0.012192 0.047993 9.147676e-41
-0.01236 -0.01446 0.048119 9.147676e-41
-0.0094179 -0.016257 0.047632 9.147676e-41
-0.0072376 -0.018283 0.047149 9.147676e-41
-0.0053237 -0.018093 0.048808 9.147676e-41
-0.0007468 -0.019779 0.047689 9.147676e-41
0.0019702 -0.019675 0.048972 9.147676e-41
0.0057457 -0.018683 0.049562 9.147676e-41
0.0072508 -0.018412 0.048838 9.147676e-41
0.0093474 -0.016634 0.04852 9.147676e-41
0.012503 -0.015127 0.047508 9.147676e-41
0.015013 -0.013764 0.048426 9.147676e-41
0.017513 -0.0099345 0.047895 9.147676e-41
0.016967 -0.0082326 0.049149 9.147676e-41
0.018486 -0.0050634 0.048656 9.147676e-41
0.019177 -0.0028622 0.04838 9.147676e-41
0.019211 0.0022562 0.050619 9.147676e-41
0.019302 0.0043109 0.049158 9.147676e-41
0.018348 0.006925 0.04871 9.147676e-41
0.016937 0.0099657 0.049737 9.147676e-41
0.015609 0.012802 0.049835 9.147676e-41
0.013901 0.014656 0.049467 9.147676e-41
0.011502 0.016175 0.050065 9.147676e-41
0.0088955 0.016945 0.049261 9.147676e-41
0.0059498 0.018297 0.049651 9.147676e-41
0.0022951 0.018673 0.04854 9.147676e-41
0.00030097 0.020266 0.049462 9.147676e-41
-0.0036529 0.019209 0.049394 9.147676e-41
-0.0061622 0.019604 0.049296 9.147676e-41
-0.0097795 0.016985 0.04972 9.147676e-41
-0.012132 0.016721 0.048463 9.147676e-41
-0.014861 0.014569 0.048717 9.147676e-41
-0.015478 0.011539 0.048445 9.147676e-41
-0.01687 0.010045 0.048977 9.147676e-41
-0.018813 0.0062776 0.049426 9.147676e-41
-0.018795 0.0032026 0.049398 9.147676e-41
-0.021056 0.00030984 0.049502 9.147676e-41
-0.019565 -0.002981 0.049115 9.147676e-41
-0.019026 -0.0054661 0.049106 9.147676e-41
-0.018202 -0.0089459 0.049538 9.147676e-41
-0.016849 -0.010737 0.049235 9.147676e-41
-0.015126 -0.014074 0.049134 9.147676e-41
-0.01246 -0.015895 0.04986 9.147676e-41
-0.0099899 -0.017421 0.050121 9.147676e-41
-0.0071325 -0.018572 0.049752 9.147676e-41
-0.0052796 -0.019549 0.048254 9.147676e-41
-0.0014434 -0.02045 0.048863 9.147676e-41
0.002171 -0.019049 0.050029 9.147676e-41
0.0048603 -0.020233 0.048505 9.147676e-41
0.0072645 -0.019027 0.049032 9.147676e-41
0.0098574 -0.016824 0.049398 9.147676e-41
0.013327 -0.015054 0.049497 9.147676e-41
0.015304 -0.013099 0.049456 9.147676e-41
0.017538 -0.010678 0.049793 9.147676e-41
0.017361 -0.0077987 0.050016 9.147676e-41
0.019505 -0.0049056 0.049537 9.147676e-41
0.019747 -0.0022259 0.049367 9.147676e-41
0.020675 0.00095962 0.050121 9.147676e-41
0.020231 0.0036823 0.049701 9.147676e-41
0.019619 0.0069323 0.05015 9.147676e-41
0.0174 0.010985 0.050653 9.147676e-41
0.015281 0.011971 0.05094 9.147676e-41
0.014099 0.014641 0.050812 9.147676e-41
0.011337 0.016712 0.050758 9.147676e-41
0.0085673 0.018629 0.051488 9.147676e-41
0.0062881 0.019325 0.05084 9.147676e-41
0.0030226 0.020239 0.050537 9.147676e-41
-0.00091125 0.020172 0.050583 9.147676e-41
-0.0030189 0.020216 0.049953 9.147676e-41
-0.0067859 0.019761 0.050014 9.147676e-41
-0.0085485 0.017873 0.050034 9.147676e-41
-0.012145 0.01818 0.050496 9.147676e-41
-0.014581 0.014741 0.050577 9.147676e-41
-0.015356 0.01263 0.05056 9.147676e-41
-0.018035 0.0098669 0.04993 9.147676e-41
-0.01912 0.0059714 0.050236 9.147676e-41
-0.019427 0.0039377 0.049202 9.147676e-41
-0.021059 0.0014434 0.049461 9.147676e-41
-0.02156 -0.0025125 0.050118 9.147676e-41
-0.019955 -0.0054131 0.050697 9.147676e-41
-0.018228 -0.0085447 0.05043 9.147676e-41
-0.016984 -0.011842 0.051082 9.147676e-41
-0.015325 -0.012914 0.050919 9.147676e-41
-0.012666 -0.015496 0.050528 9.147676e-41
-0.010903 -0.017789 0.050111 9.147676e-41
-0.0071027 -0.019148 0.050601 9.147676e-41
-0.0045628 -0.019497 0.050336 9.147676e-41
-0.0013599 -0.019911 0.050609 9.147676e-41
0.0019899 -0.019545 0.05157 9.147676e-41
0.0045147 -0.018777 0.051365 9.147676e-41
0.0077633 -0.019276 0.050526 9.147676e-41
0.011054 -0.01731 0.051038 9.147676e-41
0.013071 -0.016342 0.050063 9.147676e-41
0.015137 -0.013403 0.050162 9.147676e-41
0.016746 -0.010499 0.049291 9.147676e-41
0.018826 -0.007866 0.050098 9.147676e-41
0.019505 -0.0048615 0.050015 9.147676e-41
0.019742 -0.0019067 0.049953 9.147676e-41
0.01991 0.00082487 0.051014 9.147676e-41
0.019571 0.0037055 0.050243 9.147676e-41
0.019269 0.0068977 0.052151 9.147676e-41
0.01881 0.01034 0.051796 9.147676e-41
0.017063 0.012441 0.051789 9.147676e-41
0.014753 0.014349 0.051215 9.147676e-41
0.010287 0.017402 0.052488 9.147676e-41
0.0083965 0.018492 0.050645 9.147676e-41
0.0062292 0.019942 0.050826 9.147676e-41
0.0027612 0.021022 0.05159 9.147676e-41
-0.00047787 0.020667 0.050859 9.147676e-41
-0.0038649 0.020014 0.05126 9.147676e-41
-0.0064093 0.019631 0.050354 9.147676e-41
-0.0095976 0.018455 0.051493 9.147676e-41
-0.012296 0.01661 0.052005 9.147676e-41
-0.015098 0.014146 0.052482 9.147676e-41
-0.016842 0.011573 0.051702 9.147676e-41
-0.018709 0.010679 0.051368 9.147676e-41
-0.02019 0.0059504 0.051132 9.147676e-41
-0.019645 0.003799 0.05083 9.147676e-41
-0.020609 0.0010424 0.050957 9.147676e-41
-0.019892 -0.002467 0.051337 9.147676e-41
-0.02 -0.0064423 0.05105 9.147676e-41
-0.019042 -0.0090583 0.051571 9.147676e-41
-0.017491 -0.010681 0.051149 9.147676e-41
-0.015312 -0.01417 0.05136 9.147676e-41
-0.012483 -0.016427 0.051632 9.147676e-41
-0.011055 -0.017728 0.051317 9.147676e-41
-0.007135 -0.020058 0.051591 9.147676e-41
-0.0039531 -0.02043 0.051563 9.147676e-41
-0.0013725 -0.020698 0.050808 9.147676e-41
0.0014138 -0.02085 0.052275 9.147676e-41
0.0051282 -0.020026 0.05169 9.147676e-41
0.0074112 -0.018812 0.051445 9.147676e-41
0.011125 -0.018314 0.051274 9.147676e-41
0.013876 -0.016881 0.051311 9.147676e-41
0.014825 -0.014257 0.051448 9.147676e-41
0.017172 -0.011169 0.052384 9.147676e-41
0.018901 -0.0083722 0.051744 9.147676e-41
0.020344 -0.0046071 0.05193 9.147676e-41
0.020457 -0.0025274 0.051562 9.147676e-41
0.021442 0.00091301 0.052615 9.147676e-41
0.020421 0.0043956 0.052656 9.147676e-41
0.019549 0.0061493 0.052241 9.147676e-41
0.018384 0.010295 0.052021 9.147676e-41
0.017565 0.012173 0.052504 9.147676e-41
0.014292 0.014843 0.051629 9.147676e-41
0.012353 0.017016 0.052163 9.147676e-41
0.0092079 0.019358 0.052951 9.147676e-41
0.005853 0.019671 0.05278 9.147676e-41
0.0038502 0.020648 0.052258 9.147676e-41
-0.00039516 0.021869 0.05265 9.147676e-41
-0.0029331 0.021145 0.0526 9.147676e-41
-0.007305 0.020767 0.051642 9.147676e-41
-0.010298 0.019205 0.052847 9.147676e-41
-0.011615 0.017082 0.052242 9.147676e-41
-0.014978 0.014425 0.052701 9.147676e-41
-0.018357 0.012743 0.052264 9.147676e-41
-0.018495 0.009767 0.05286 9.147676e-41
-0.019229 0.0068711 0.053299 9.147676e-41
-0.021885 0.0038947 0.052793 9.147676e-41
-0.020482 0.00074886 0.051792 9.147676e-41
-0.021397 -0.0017979 0.052325 9.147676e-41
-0.020739 -0.0059181 0.052826 9.147676e-41
-0.018964 -0.0085021 0.052502 9.147676e-41
-0.018303 -0.011741 0.053044 9.147676e-41
-0.014985 -0.015052 0.05157 9.147676e-41
-0.013338 -0.015732 0.053225 9.147676e-41
-0.010741 -0.018708 0.052816 9.147676e-41
-0.0072859 -0.018989 0.05293 9.147676e-41
-0.0049614 -0.019484 0.052813 9.147676e-41
-0.00048856 -0.021039 0.052948 9.147676e-41
0.0020252 -0.020922 0.052304 9.147676e-41
0.0049833 -0.02083 0.051684 9.147676e-41
0.0083181 -0.019993 0.052738 9.147676e-41
0.012046 -0.017582 0.05275 9.147676e-41
0.013559 -0.016136 0.051756 9.147676e-41
0.01556 -0.014766 0.052924 9.147676e-41
0.01857 -0.0107 0.052724 9.147676e-41
0.019675 -0.0085885 0.052606 9.147676e-41
0.020743 -0.0053985 0.05239 9.147676e-41
0.020655 -0.0025485 0.05298 9.147676e-41
0.021275 0.0008413 0.052886 9.147676e-41
0.020976 0.0041354 0.053831 9.147676e-41
0.019397 0.0067767 0.052862 9.147676e-41
0.018652 0.010461 0.054509 9.147676e-41
0.016949 0.013918 0.053261 9.147676e-41
0.015334 0.015693 0.053663 9.147676e-41
0.011337 0.017497 0.0528 9.147676e-41
0.0098314 0.019576 0.053104 9.147676e-41
0.0064396 0.020238 0.052868 9.147676e-41
0.0029703 0.022102 0.053489 9.147676e-41
-4.1826e-06 0.020922 0.053448 9.147676e-41
-0.0036683 0.021377 0.053439 9.147676e-41
-0.0066604 0.019699 0.053334 9.147676e-41
-0.009279 0.019342 0.053389 9.147676e-41
-0.013367 0.016672 0.053391 9.147676e-41
-0.015482 0.015999 0.053536 9.147676e-41
-0.017743 0.011933 0.053783 9.147676e-41
-0.019054 0.0095329 0.053847 9.147676e-41
-0.021049 0.0073517 0.053435 9.147676e-41
-0.021127 0.0041379 0.052737 9.147676e-41
-0.021507 -0.00023228 0.052855 9.147676e-41
-0.021621 -0.0025425 0.053464 9.147676e-41
-0.021513 -0.0065065 0.053907 9.147676e-41
-0.019231 -0.0089854 0.053793 9.147676e-41
-0.018068 -0.011706 0.054126 9.147676e-41
-0.015696 -0.014942 0.053227 9.147676e-41
-0.013328 -0.016773 0.053088 9.147676e-41
-0.010786 -0.018901 0.053826 9.147676e-41
-0.0073094 -0.020352 0.053465 9.147676e-41
-0.0044257 -0.021401 0.053878 9.147676e-41
-0.0021068 -0.021387 0.053517 9.147676e-41
0.0025103 -0.021014 0.052261 9.147676e-41
0.0048424 -0.021502 0.052326 9.147676e-41
0.0073427 -0.019858 0.05369 9.147676e-41
0.010659 -0.018536 0.053632 9.147676e-41
0.013876 -0.016464 0.053313 9.147676e-41
0.016698 -0.014701 0.053364 9.147676e-41
0.01813 -0.011416 0.052554 9.147676e-41
0.019818 -0.0085608 0.053582 9.147676e-41
0.020119 -0.0055512 0.052681 9.147676e-41
0.022508 -0.0021671 0.05311 9.147676e-41
0.022651 0.0016082 0.054805 9.147676e-41
0.020849 0.0051877 0.054566 9.147676e-41
0.021338 0.00801 0.054106 9.147676e-41
0.019057 0.0097247 0.054266 9.147676e-41
0.017881 0.013221 0.054219 9.147676e-41
0.015248 0.016824 0.05485 9.147676e-41
0.012359 0.017956 0.055668 9.147676e-41
0.0085017 0.019509 0.055438 9.147676e-41
0.0057184 0.02129 0.054026 9.147676e-41
0.0036613 0.021591 0.054912 9.147676e-41
9.1042e-05 0.021925 0.054688 9.147676e-41
-0.00196 0.021608 0.05431 9.147676e-41
-0.0067706 0.019958 0.05519 9.147676e-41
