# .PCD v.7 - Point Cloud Data file format
FIELDS x y z intensity index line rgb normal_x normal_y normal_z curvature f1 f2 f3 f4 f5 f6 f7 f8 f9 f10 f11 f12 f13 f14 f15 f16 f17 f18 f19 f20 f21 f22 f23 f24 f25 f26 f27 point_label point_class
SIZE 4 4 4 4 4 4 4 4 4 4 4 4 4 4 4 4 4 4 4 4 4 4 4 4 4 4 4 4 4 4 4 4 4 4 4 4 4 4 4 4
TYPE F F F F F F F F F F F F F F F F F F F F F F F F F F F F F F F F F F F F F F F F
COUNT 1 1 1 1 1 1 1 1 1 1 1 1 1 1 1 1 1 1 1 1 1 1 1 1 1 1 1 1 1 1 1 1 1 1 1 1 1 1 1 1
WIDTH 164
HEIGHT 1
VIEWPOINT 0 0 0 1 0 0 0
POINTS 164
DATA ascii
0.9445977 -0.04446788 -0.1429992 3101 150 30 1.26058e-38 -0.6792489 0.5345801 0.5028371 0.07484014 0 0 0 0.007828411 77.53722 21.27945 0 0.005192704 0.01332472 0 0 0.1154668 15.88698 70.44803 12.302 0.07487081 0.01565766 0 0 0 0.05611093 22.22574 71.24715 4.919514 0.2541496 0.05718178 0.08317026 0 2
0.9460005 -0.04140458 -0.1438501 3097 151 30 1.26058e-38 -0.6733821 0.5706869 0.4699712 0.06717755 0 0 0 0.004543137 78.42621 20.38836 0 0.002271569 0.01012468 0 0 0.08798498 14.33029 72.87875 11.4834 0.04096412 0.01012468 0 0 0 0.03999015 22.13873 73.18982 3.182631 0.1843942 0.0406295 0.05532853 0 1
0.9486974 -0.03802641 -0.1444848 3007 152 30 1.26058e-38 -0.6312161 0.6154503 0.4720033 0.05979029 0 0 0 0 81.02087 17.74799 0 0 0.03322008 0 0 0.06522465 12.48658 76.12386 10.10918 0.01062576 0.006631753 0 0 0 0 22.07624 74.38937 2.158568 0.1192025 0.02364322 0.03507011 0 1
0.9505858 -0.03569182 -0.1455816 4816 153 30 1.26058e-38 -0.6178443 0.6510566 0.440901 0.05354388 0 0 0 0 81.58718 17.14723 0 0.007976823 0.04867875 0 0 0.05006472 10.90365 77.87848 9.955416 0 0.003495648 0 0 0 0 21.27606 75.63638 1.75468 0.08776239 0.01223351 0.02396325 0 1
0.9538566 -0.03216097 -0.1461861 2521 154 30 1.26058e-38 -0.5851679 0.6687199 0.4586853 0.04268447 0 0 0 0 83.08411 15.46083 0 0.02808985 0.1456759 0 0 0.04252587 10.10572 79.10529 9.465157 0 0 0 0 0 0 21.86364 74.86066 1.901118 0.07401742 0.007581365 0.01166985 0 1
0.9569497 -0.02835999 -0.1467339 497 155 30 1.26058e-38 -0.5517635 0.6573817 0.5132313 0.04858893 0 0 0 0 83.36125 15.02156 0 0.05442572 0.2334877 0 0 0.03596344 9.427174 79.92271 9.284883 0 0 0 0 0 0 21.02571 76.20759 1.35886 0.07859541 0 0 0 1
0.9623244 -0.02403653 -0.1470812 2433 156 30 1.26058e-38 -0.4477449 0.6980644 0.558776 0.05127953 0 0 0 0 81.45911 16.24893 0 0.1073703 0.7020355 0 0 0.006086085 10.03962 79.67976 8.745976 0.0460032 0 0 0 0 0 25.34299 70.90731 2.035317 0.2044936 0.02734464 0 0 1
0.9660593 -0.02116557 -0.148242 1055 157 30 1.26058e-38 -0.4008108 0.7335989 0.5488018 0.05113291 0 0 0 0 80.20803 16.11093 0 0.1325811 1.932493 0 0 0.02204783 11.25736 78.07221 8.979136 0.05327551 0 0 0 0 0 27.03018 68.05981 2.939796 0.3178027 0.03643422 0 0 1
0.9675753 -0.01937786 -0.1496066 2229 158 30 1.26058e-38 -0.3876908 0.7604499 0.520972 0.05227837 0 0 0 0.05970474 76.80627 19.69898 0 0.1625339 1.625177 0 0.02985237 0.05554968 10.62107 77.50366 10.08565 0.05689828 0 0 0 0 0 29.94791 65.75323 2.116878 0.4858723 0.04880699 0 0 2
0.9741107 -0.0156124 -0.1506715 2229 159 30 1.26058e-38 -0.2382725 0.77758 0.5818897 0.04846172 0 0 0 0.2202217 64.97298 27.19491 0 0.2449725 5.450687 0 0.06646985 0.1117679 10.59663 72.83218 14.37568 0.1010688 0 0 0 0 0 29.97939 61.72117 4.743831 1.53414 0.10525 0 0 2
0.9961854 -0.01250098 -0.1542009 2575 160 30 1.26058e-38 -0.2145572 -0.8275427 -0.5187854 0.05401006 0 0 0 3.95949 33.63009 23.03203 0 2.253264 33.26606 0 1.11098 1.922343 24.45127 53.90923 13.68788 1.05923 0 0 0 0 0 24.09771 38.86467 24.35639 6.158087 2.664075 0 0 2
0.9930004 -0.1449343 -0.1592896 2949 128 31 1.26058e-38 -0.3463446 -0.896501 0.2762814 0.03476293 0 0 0 0 56.20396 37.48529 2.106184 0 0 0.7015769 0.9458896 2.410655 15.28811 66.83583 9.437984 0.1753942 0 0 0 0 2.121626 26.24992 57.03729 9.886147 0.5004595 0 0 0 2
0.973148 -0.1352752 -0.1555628 2946 129 31 1.26058e-38 -0.5968508 -0.7624127 0.249992 0.05292466 0 0 0 0.04704516 83.45046 12.75299 0.9640679 0 0 0.4170552 0.617259 1.829197 23.63305 61.57863 8.150836 0.9885326 0 0 0 0 1.274984 8.376381 58.51727 27.52417 1.521754 0 0 0 1
0.9666315 -0.1265343 -0.1547538 2883 130 31 1.26058e-38 -0.6440473 -0.7030115 0.3016254 0.06368855 0 0 0 0.04457694 87.82339 8.50877 1.368353 0.01551645 0.01914962 0.1758662 0.5413074 1.252294 20.5116 66.0546 7.552997 1.675593 0.01551645 0 0 0.009309872 0.2746168 10.09087 52.87084 32.70998 1.810271 0.007182371 0.006694476 0 1
0.9659895 -0.1243932 -0.154299 2875 131 31 1.26058e-38 -0.6517878 -0.7149491 0.2530227 0.06246663 0 0 0 0.04330174 86.11121 10.56885 1.016182 0.01505111 0.04471096 0.1538972 1.011172 1.047465 19.56969 66.35539 8.327232 1.319396 0.01505111 0 0 0.0178892 0.2397192 8.938614 53.51675 32.9617 2.110749 0.008348183 0.005512662 0 1
0.9648033 -0.1228071 -0.1537935 2721 132 31 1.26058e-38 -0.6612025 -0.70249 0.2632852 0.06377848 0 0 0 0.06324438 87.05489 9.353991 1.274441 0.02162864 0.06451926 0.2038546 0.3725272 1.715262 20.05652 65.34368 8.326568 1.792672 0.02162864 0 0 0.02550782 0.3022896 9.2437 50.84518 35.07969 2.316218 0.01213407 0.007990424 0 1
0.9611838 -0.1161018 -0.1532919 2896 133 31 1.26058e-38 -0.6635531 -0.68234 0.3067727 0.07206659 0 0 0 0.1806249 87.84039 8.429224 1.066476 0.07815233 0.3320037 0.3265691 1.148588 1.996468 21.20914 55.38223 14.86003 2.925705 0.07815233 0 0 0.1127123 0.7983209 5.628264 44.77361 40.65483 5.890946 0.04148057 0.02672084 0 1
0.9532419 -0.1090066 -0.151949 3129 134 31 1.26058e-38 -0.5659873 -0.7853346 0.2508146 0.05841782 0.006591807 0 0 0.2411782 79.36561 16.05351 1.422978 0.4335391 0.7158127 0.5368598 2.120029 5.125393 16.10235 53.20451 18.11754 2.693209 0.3393117 0 0 0.1655649 1.671492 9.586617 48.28794 32.75584 5.45869 0.2487673 0.0642775 0 1
0.9443159 -0.1047471 -0.1500186 3129 135 31 1.26058e-38 -0.5619359 -0.760367 0.325684 0.07766356 0.0212635 0.03610357 0.01470113 0.1402648 69.00379 27.55808 0.9223335 0.4587158 0.4035118 0.4810022 3.235533 10.50095 10.0328 51.53902 20.62552 1.76073 0.3832051 0 0 0.06470857 2.691168 17.6676 49.97516 24.12701 3.636073 0.2714501 0.1255813 0 2
0.9426433 -0.1036133 -0.1487827 3512 136 31 1.26058e-38 -0.5968538 -0.7307206 0.3313803 0.09449371 0.02369044 0.04250355 0.0260798 0.1498721 68.68819 27.67257 1.021014 0.5119043 0.4109535 0.5378265 2.794443 11.13399 11.34179 49.8748 20.40863 2.004662 0.450666 0 0 0.06341325 1.736622 17.52064 50.8843 24.2704 3.597865 0.3157865 0.1577802 0 2
0.9365811 -0.09785902 -0.1473323 3375 137 31 1.26058e-38 -0.651711 -0.6264914 0.4275293 0.09146382 0.05308567 0.08077745 0.04325945 0.1554089 57.65361 38.0469 1.365412 0.843873 0.4745102 0.9055912 1.958737 8.028393 17.0716 44.81112 21.47305 3.653103 0.8152384 0 0 0.07253741 3.919592 27.81987 47.44139 15.98355 2.539631 0.5903593 0.3498795 0 2
0.9271268 -0.08825392 -0.1475578 3374 138 31 1.26058e-38 -0.7693863 -0.3983658 0.4993489 0.08540329 0.02328397 0.01151376 0 0.07072714 44.48926 52.81635 1.15158 0.220782 0.1060881 0.2609147 0.4296209 3.185678 24.30996 45.05923 22.60812 2.682501 0.3535653 0 0 0.04230261 5.772931 37.68365 45.12208 9.147166 0.758028 0.1974248 0.1660091 0 1
0.9252412 -0.08452336 -0.1470877 3350 139 31 1.26058e-38 -0.758046 -0.3112719 0.5731283 0.09471466 0.01608937 0.00838521 0 0.0553075 42.62192 55.10711 0.9280792 0.1344666 0.04657563 0.1483082 0.1870741 2.119665 26.64591 43.80633 23.52963 2.251569 0.2294423 0 0 0.03248753 5.581356 38.54126 45.90634 8.069626 0.5212606 0.1358997 0.1297299 0 1
0.924641 -0.08127174 -0.1462261 3396 140 31 1.26058e-38 -0.7611469 -0.1997107 0.6170664 0.09949356 0.01284348 0.008316338 0 0.05799996 42.96629 55.02188 0.715905 0.1138642 0.03780856 0.1213357 0.1341473 1.603221 26.70348 44.98273 23.20159 1.983903 0.2044546 0 0 0.025396 4.874449 39.2882 45.2251 8.732309 0.539517 0.1139586 0.1359587 0 1
0.9221428 -0.07617173 -0.1472144 3407 141 31 1.26058e-38 -0.7993203 -0.1099836 0.5907543 0.0958802 0.010329 0.006903123 0 0.05178077 43.18968 54.94965 0.6593969 0.06429759 0.02674796 0.0741481 0.06385457 1.121087 25.43389 48.82497 21.36486 1.933733 0.1422317 0 0 0.0244622 4.369197 35.44325 48.43642 9.598046 0.848246 0.1110538 0.1281271 0 1
0.9197715 -0.07218885 -0.1479777 3518 142 31 1.26058e-38 -0.7960951 0.03408271 0.6042111 0.07710461 0.006608323 0.004473316 0 0.03467441 42.37654 56.07323 0.4425623 0.02397422 0.01327427 0.02888684 0.01959229 0.6510046 24.74673 52.03767 20.21947 1.187648 0.0843168 0 0 0.01622672 3.350948 33.05571 51.89352 9.645197 0.8538734 0.07213777 0.0877083 0 1
0.9204097 -0.06929255 -0.1477361 3518 143 31 1.26058e-38 -0.8068571 0.1521743 0.5708105 0.07828651 0.004151275 0.004151275 0 0.03320699 44.31815 54.23683 0.3574417 0.01895848 0.006321157 0.01679359 0.0131142 0.4992895 24.10555 53.08894 20.27614 0.9064149 0.07298487 0 0 0.0140669 2.831283 30.89128 53.66058 10.74618 0.7018646 0.06080854 0.07316355 0 1
0.9213235 -0.06604752 -0.1478044 3565 144 31 1.26058e-38 -0.812615 0.2314468 0.5348731 0.07357895 0.002349889 0.002349889 0 0.0267921 46.85309 51.71904 0.3584091 0.01517577 0.004699779 0.01174945 0.004797716 0.452593 24.38084 53.63083 19.64598 0.7944253 0.06070612 0 0 0.0151851 3.024138 30.10462 53.4878 11.43325 0.7723114 0.06929476 0.07531117 0 1
0.9291272 -0.06184931 -0.1456122 3410 145 31 1.26058e-38 -0.7050037 0.3705363 0.6047087 0.1077884 0.007209206 0.007209206 0 0.06680747 57.47086 41.18601 0.1782821 0.03904662 0.01061273 0.02843466 0.01101489 0.371847 23.2711 55.01283 19.36164 0.7989406 0.1102441 0 0 0.007434964 2.047924 30.293 55.27002 10.38137 0.7176628 0.07850195 0.1701411 0 2
0.9307758 -0.05843361 -0.1466217 3214 146 31 1.26058e-38 -0.6886896 0.4480183 0.5700757 0.09674607 0.002880517 0.002880517 0 0.04802397 60.09241 38.67233 0.1216063 0.0251945 0.002880517 0.008641552 0.005761035 0.2122565 21.986 55.90163 20.32181 0.4679035 0.06422248 0 0 0.006224521 1.550255 28.57941 58.04207 9.971104 0.6218942 0.06254712 0.1347003 0 2
0.9324011 -0.05528583 -0.1475561 3176 147 31 1.26058e-38 -0.6766777 0.4950743 0.5449851 0.08066848 0 0 0 0.02694394 63.41426 35.41665 0.09398764 0.01366568 0 0 0 0.140404 20.65106 58.40035 19.46334 0.2746972 0.03564266 0 0 0.005355597 1.038181 27.21213 60.72684 9.267044 0.5446407 0.05965135 0.1116566 0 2
0.9342262 -0.05251981 -0.1485978 3155 148 31 1.26058e-38 -0.6741811 0.5482063 0.4949239 0.0704326 0 0 0 0.01733374 66.11644 32.76005 0.0584646 0.01134036 0 0 0 0.0906873 18.88576 59.77309 20.03201 0.1675954 0.01447706 0 0 0 0.7164278 25.07224 64.40479 8.174774 0.4440848 0.05322467 0.09806991 0 2
0.9358192 -0.04976214 -0.1493899 3151 149 31 1.26058e-38 -0.6680032 0.5833406 0.4620449 0.06542812 0 0 0 0.008570257 69.30492 29.58702 0.05260269 0.00569132 0 0 0 0.06795349 17.9584 62.53374 18.29925 0.09626933 0.003192246 0 0 0 0.5445077 23.16765 67.17635 7.554643 0.3824539 0.04908005 0.08410346 0 2
0.9386991 -0.04591031 -0.1496642 3269 150 31 1.26058e-38 -0.6735131 0.5848845 0.4519848 0.06768244 0 0 0 0.004868012 73.92104 24.98881 0.02869744 0.002434006 0 0 0 0.05225554 16.06977 66.04683 16.7315 0.04548011 0 0 0 0 0.3179477 22.40118 69.89619 5.949513 0.2770565 0.0407155 0.06323069 0 2
0.9402003 -0.04319827 -0.1504706 3269 151 31 1.26058e-38 -0.6543233 0.6145868 0.4406178 0.06052893 0 0 0 0 76.16356 22.75858 0.01625806 0 0 0 0 0.04696954 15.00749 68.93777 14.93482 0.01136708 0 0 0 0 0.1924523 22.08083 71.32018 5.059865 0.2115924 0.02964568 0.0438594 0 2
0.9432179 -0.03949516 -0.1508028 3199 152 31 1.26058e-38 -0.6460123 0.6370514 0.4205159 0.05247503 0 0 0 0 79.83286 19.07583 0.005387255 0 0 0 0 0.03887831 13.20424 71.91936 13.75161 0 0 0 0 0 0.08635133 21.12194 73.64254 3.890589 0.127091 0.01513261 0.03045192 0 1
0.9463753 -0.03569629 -0.1513216 3205 153 31 1.26058e-38 -0.6575969 0.6224587 0.4243955 0.04288165 0 0 0 0 81.92707 16.92245 0 0.01728149 0.01111818 0 0 0.03604918 12.20358 74.20843 12.42986 0 0 0 0 0 0.02033058 20.90851 74.90163 2.926507 0.08489314 0.01202577 0.02399105 0 1
0.9549155 -0.02866163 -0.1504711 5009 154 31 1.26058e-38 -0.5895095 0.6562993 0.4709032 0.03734564 0 0 0 0 85.22712 13.21996 0 0.0664624 0.1690131 0 0 0.02311845 9.520844 80.57628 8.56233 0 0 0 0 0 0 19.39928 77.32483 1.87311 0.0853389 0 0 0 1
0.9574075 -0.02600105 -0.1516098 2601 155 31 1.26058e-38 -0.5890484 0.6599981 0.4662879 0.03707604 0 0 0 0 84.67049 13.65166 0 0.09362311 0.2212383 0 0 0.02015871 8.360409 82.37328 7.883181 0 0 0 0 0 0 20.42022 76.25717 1.837011 0.1226301 0 0 0 1
0.9593761 -0.02379913 -0.1529047 472 156 31 1.26058e-38 -0.5534649 0.6886272 0.4684753 0.03677328 0 0 0 0 83.61542 14.49775 0 0.1436223 0.3502665 0 0 0.01338623 10.32673 79.35583 8.911084 0 0 0 0 0 0 21.31769 75.82127 1.273669 0.1865354 0.007898723 0 0 1
0.9717318 -0.01524363 -0.1517814 2267 157 31 1.26058e-38 -0.2936178 0.7583676 0.5819511 0.05694821 0 0 0 0.1737399 66.64258 26.15107 0 0.2514499 4.88223 0 0.04984052 0.087784 10.63063 75.78339 11.47479 0.07460531 0 0 0 0 0 36.93218 55.57449 4.104713 1.411706 0.0779798 0 0 2
0.962577 -0.01932596 -0.1551364 2569 158 31 1.26058e-38 -0.5273139 0.705091 0.4741168 0.04713422 0 0 0 0 81.57972 16.10966 0 0.2559869 0.5574904 0 0 0.01639176 10.52648 78.8002 9.147501 0.01230966 0 0 0 0 0 27.03615 70.07607 1.041875 0.3360922 0.01269144 0 0 1
0.9639955 -0.01708801 -0.1562683 2569 159 31 1.26058e-38 -0.5100793 0.7171457 0.4748906 0.05278607 0 0 0 0 80.01328 17.34542 0 0.3898135 0.7286164 0 0 0.07612882 11.27422 77.92915 9.17556 0.02207036 0 0 0 0 0 26.04305 70.95071 0.9819129 0.4867254 0.01472324 0 0 1
0.9852774 -0.009862239 -0.1576069 2666 160 31 1.26058e-38 -0.0233171 0.8898544 0.4556483 0.03973289 0 0 0 2.583915 42.74211 27.14464 0 2.682357 21.26014 0 0.4768775 1.031252 16.70118 65.7029 11.7783 0.7226661 0 0 0 0 0 29.89505 42.22774 16.91419 6.526746 0.8494467 0 0 2
0.9897834 -0.009014128 -0.159817 2679 161 31 1.26058e-38 -0.03775109 0.9076694 0.4179846 0.03724357 0 0 0 4.274808 30.21091 29.50407 0 2.42408 29.46128 0 0.6336144 1.230773 20.93134 60.22679 12.07889 0.7737238 0 0 0 0 0 30.44664 33.85339 22.49895 7.11114 1.965028 0 0 2
0.9836331 -0.1423076 -0.1636503 2870 128 32 1.26058e-38 -0.3884141 -0.9167207 0.09358225 0.0356952 0 0 0 0 77.51933 17.66962 1.147828 0 0 0.2626574 0.4261904 0.8122155 14.23911 71.08916 8.746994 0.7604498 0 0 0 0 1.125103 14.08595 67.47213 13.26321 0.3904037 0 0 0 1
0.9776213 -0.1385613 -0.1624239 2957 129 32 1.26058e-38 -0.5357661 -0.8419228 0.06419303 0.03666302 0 0 0 0 79.53611 16.0356 1.257708 0 0 0.2946029 0.4091414 0.7783381 15.63633 70.52084 8.581176 0.6089902 0 0 0 0 1.258803 10.27041 65.83218 19.09804 0.3699829 0 0 0 1
0.9657255 -0.127973 -0.1603033 2971 130 32 1.26058e-38 -0.6693605 -0.72169 0.1764087 0.05037852 0 0 0 0.02504306 90.98779 6.336764 0.3613736 0 0.005110198 0.07786524 0.1965388 0.563502 20.47937 66.32337 9.49712 0.5783176 0 0 0 0 0.1795065 5.428155 62.93556 28.12692 1.045929 0 0 0 1
0.9642395 -0.1253412 -0.1597714 3005 131 32 1.26058e-38 -0.6632199 -0.7140585 0.224187 0.05572731 0 0 0 0.02686039 90.51803 6.7761 0.4063231 0 0.005809315 0.08007776 0.2438186 0.5868247 19.40224 66.81911 9.90238 0.698673 0 0 0 0 0.1290479 5.595354 60.70444 30.08033 1.223945 0 0 0 1
0.9515529 -0.1127585 -0.1586766 2945 132 32 1.26058e-38 -0.5631201 -0.7577032 0.3298205 0.0521047 0 0 0 0.1318203 86.95061 10.12641 0.56883 0.075667 0.2597493 0.1528286 0.9974728 3.184788 14.69386 63.13043 14.70027 1.177776 0.075667 0 0 0.05501229 0.7525548 7.918985 57.2835 28.71832 3.320803 0.03918029 0.0247402 0 1
0.9436316 -0.1065387 -0.1567523 2960 133 32 1.26058e-38 -0.5268344 -0.8044935 0.2742913 0.04304706 0 0 0 0.09848602 74.75946 22.15964 0.9036251 0.226 0.2597222 0.1839367 1.685152 6.432002 12.17013 58.36226 18.03302 1.348052 0.1923646 0 0 0.06224236 1.818748 18.59964 55.60473 19.3031 2.840343 0.1433665 0.03474766 0 2
0.9394726 -0.1039318 -0.1554506 3051 134 32 1.26058e-38 -0.5484334 -0.7924474 0.2669231 0.05530647 0.004319516 0 0 0.05451589 68.53421 28.60086 0.8755627 0.250825 0.2202503 0.2186365 1.47592 7.196077 12.28691 56.3819 19.36569 1.397641 0.2177608 0 0 0.0523772 2.899358 22.87405 54.66378 15.67571 2.184031 0.1368232 0.05441666 0 2
0.9361749 -0.1013248 -0.1545445 3051 135 32 1.26058e-38 -0.6073412 -0.7461489 0.2727607 0.06565866 0.01341636 0.004103689 0 0.05698662 64.77061 32.30308 0.9930675 0.2537388 0.2046797 0.2645789 1.448083 7.16329 13.28733 54.95975 19.40623 1.810713 0.2597103 0 0 0.05488532 3.339212 28.16714 52.57943 12.37964 1.805491 0.1849102 0.0890037 0 2
0.9320334 -0.09799042 -0.1535332 3632 136 32 1.26058e-38 -0.6527424 -0.6775274 0.3389452 0.07029244 0.01449772 0.004678156 0 0.03499995 56.80606 40.27507 1.204438 0.2235166 0.1410449 0.2507637 0.9654562 6.845507 15.39038 51.40855 21.47374 2.104038 0.265848 0 0 0.05437467 4.834804 32.77605 50.91331 8.723677 1.132532 0.1804241 0.08911086 0 2
0.9294521 -0.09513437 -0.1524589 3752 137 32 1.26058e-38 -0.6757222 -0.6169076 0.4035151 0.0777235 0.01612874 0.005440911 0 0.03629234 53.59683 43.25674 1.535693 0.2029552 0.114099 0.2435455 0.9470336 5.447354 18.0806 49.78362 21.49203 2.499835 0.270144 0 0 0.07718999 5.706454 34.48574 48.96174 8.300527 0.9196137 0.2047924 0.1080966 0 2
0.9220122 -0.08553838 -0.1532348 3734 138 32 1.26058e-38 -0.770597 -0.4280306 0.4721971 0.08193116 0.005538782 0.002775875 0 0.01322038 39.28608 57.15701 2.405143 0.03751873 0.0191287 0.05413507 0.09603312 2.09308 24.21571 46.63294 22.35276 3.357852 0.1238833 0 0 0.0959589 8.4472 38.661 42.87926 7.601923 0.9999344 0.158659 0.08246967 0 1
0.9201559 -0.0822925 -0.1528763 3781 139 32 1.26058e-38 -0.7785742 -0.3434201 0.5252474 0.1009881 0.004049886 0.002056646 0 0.01018323 37.08181 60.28363 1.537044 0.01750827 0.01197471 0.02965792 0.05281259 1.476915 24.28768 47.54039 22.41301 3.061295 0.0864841 0 0 0.04430477 7.91038 39.28407 42.9882 7.581387 0.9438418 0.1254382 0.07064472 0 1
0.919396 -0.07940667 -0.1521062 3720 140 32 1.26058e-38 -0.8025588 -0.2310215 0.5500259 0.1015088 0.00404292 0.002075932 0 0.01062723 38.37965 58.906 1.637928 0.00808584 0.01005283 0.0202146 0.04238181 1.550684 24.72876 47.56646 22.10623 2.861141 0.08261103 0 0 0.03203822 7.083775 38.35994 44.13577 8.059279 1.112499 0.1113951 0.06376434 0 1
0.9164245 -0.07502467 -0.1532701 3665 141 32 1.26058e-38 -0.8491895 -0.04908343 0.5258022 0.1098262 0 0 0 0.00586955 37.37869 60.93175 0.649816 0 0 0 0.02093187 0.8607736 24.04749 50.39748 21.7352 1.863365 0.04088062 0 0 0.02235836 3.780925 34.55237 49.46664 9.631832 1.378361 0.0978138 0.03583527 0 1
0.9164898 -0.0721819 -0.1528093 3724 142 32 1.26058e-38 -0.8537787 0.08904013 0.5129658 0.1151903 0 0 0 0.00537142 38.97281 59.5088 0.4865001 0 0 0 0.01496339 0.72479 24.633 50.66537 21.33745 1.565371 0.03251511 0 0 0.01856731 2.866306 32.25704 52.26402 9.923797 1.545815 0.07246757 0.02545823 0 1
0.9168685 -0.06919488 -0.1530765 3724 143 32 1.26058e-38 -0.8362355 0.2002147 0.5105138 0.1083449 0 0 0 0.005530111 41.42137 57.0717 0.4796386 0 0 0 0.01462639 0.6563747 23.88566 52.73892 20.66908 0.9936347 0.01993093 0 0 0.01944619 3.342291 28.90995 54.46701 10.81974 1.328176 0.06766994 0.02396367 0 1
0.9185544 -0.06588982 -0.1523978 3634 144 32 1.26058e-38 -0.8207282 0.3025225 0.4846497 0.1041348 0 0 0 0.006286602 46.25564 52.23602 0.4860432 0 0 0 0.01476032 0.5406703 24.20099 53.41987 20.07294 0.7122158 0.02258337 0 0 0.01735127 3.914973 26.70484 54.20328 12.98578 1.067668 0.06146926 0.02865971 0 1
0.9201 -0.06263735 -0.152496 3470 145 32 1.26058e-38 -0.8199882 0.3837013 0.4247265 0.08397748 0 0 0 0.004161839 50.94734 47.60383 0.4353045 0 0 0 0.01210937 0.4186447 24.54985 54.28183 19.27253 0.4469901 0.008666047 0 0 0.01376456 4.334528 24.99482 54.11274 14.41943 1.038691 0.04779852 0.02887063 0 2
0.9214351 -0.05982403 -0.1528248 3350 146 32 1.26058e-38 -0.8003127 0.4556157 0.3897613 0.07767247 0 0 0 0 55.20449 43.42572 0.3626627 0 0 0 0.002317465 0.319198 24.87418 54.00616 19.50603 0.2827034 0.002300199 0 0 0.01045623 4.442091 23.50794 53.74614 16.01479 1.199856 0.04382166 0.02780654 0 2
0.9230241 -0.0573286 -0.1531615 3272 147 32 1.26058e-38 -0.7778974 0.5222269 0.3495063 0.0753912 0 0 0 0 58.75538 39.94818 0.2900728 0 0 0 0.002080858 0.2536637 25.24214 52.85183 20.44946 0.1922366 0.002210999 0 0 0.009151694 3.919104 22.24243 55.0307 16.41845 1.318631 0.02939027 0.02574451 0 2
0.9247014 -0.05503508 -0.1534217 3258 148 32 1.26058e-38 -0.7517435 0.5850589 0.3042825 0.06964886 0 0 0 0 63.03221 35.72216 0.2375793 0 0 0 0 0.2050321 24.08556 55.88222 18.67195 0.1447624 0.002427401 0 0 0.008944654 3.29978 21.52965 56.67513 16.16286 1.257893 0.02971437 0.02796036 0 2
0.9313663 -0.04951782 -0.1541091 3257 149 32 1.26058e-38 -0.7053645 0.6054736 0.3685955 0.07337109 0 0 0 0 72.07815 26.78708 0.116793 0 0 0 0 0.09135259 19.62027 60.76958 18.46523 0.03561595 0 0 0 0.006106266 1.002541 18.90747 67.3549 10.95374 0.7063562 0.0181469 0.03274547 0 2
0.9339293 -0.04621252 -0.1548454 3231 150 32 1.26058e-38 -0.6830653 0.6074454 0.4055021 0.06903505 0 0 0 0 75.00272 23.88837 0.08578422 0 0 0 0 0.06620159 18.4207 62.95916 17.51953 0.01130388 0 0 0 0.00488485 0.6104179 18.1232 70.14433 9.561258 0.4857146 0.01697073 0.03013793 0 2
0.9387062 -0.04100521 -0.1547391 3231 151 32 1.26058e-38 -0.6762522 0.6160414 0.4039503 0.07431269 0 0 0 0 79.4059 19.52925 0.0202489 0 0 0 0 0.03545848 15.11893 68.38166 15.41933 0 0 0 0 0 0.2243503 19.02348 73.18552 6.285831 0.1961029 0.01315323 0.02695538 0 1
0.9415314 -0.03703775 -0.1550359 3298 152 32 1.26058e-38 -0.6645356 0.6116385 0.4292909 0.05747072 0 0 0 0 81.9919 16.93773 0.007478984 0.003411644 0 0 0 0.01657296 12.49808 72.5935 13.83232 0 0 0 0 0 0.08400168 20.04967 74.80789 3.883807 0.0893345 0.006987514 0.01881205 0 1
0.9434812 -0.03460013 -0.1560768 3229 153 32 1.26058e-38 -0.6608292 0.6275976 0.411614 0.03732558 0 0 0 0 83.5647 15.3346 0.00412452 0.02044239 0.007206048 0 0 0.01401268 12.12236 73.68434 13.11033 0 0 0 0 0 0.03889324 19.37246 75.9495 3.483331 0.06896723 0.005368227 0.01254951 0 1
0.945601 -0.03241838 -0.1571826 5092 154 32 1.26058e-38 -0.6521476 0.6487259 0.3922476 0.03082695 0 0 0 0 84.50405 14.34256 0 0.04371721 0.01810683 0 0 0.01484671 10.50356 75.16425 13.22578 0 0 0 0 0 0.005788147 19.1365 76.87947 2.822442 0.05627787 0.002684099 0.005278472 0 1
0.9490352 -0.02920324 -0.1579867 3003 155 32 1.26058e-38 -0.6355171 0.6640729 0.3938593 0.03228668 0 0 0 0 84.8997 13.82092 0 0.08500341 0.05543597 0 0 0.01479786 10.12178 77.11855 11.59984 0.006076171 0 0 0 0 0 18.77799 78.13562 1.852507 0.09182253 0.003123258 0 0 1
0.9509751 -0.02710851 -0.1589861 837 156 32 1.26058e-38 -0.6333578 0.6704882 0.386398 0.02996968 0 0 0 0 85.36799 13.23858 0 0.1279523 0.0934102 0 0 0.01273555 9.52223 77.51299 11.76909 0.0108512 0 0 0 0 0 18.3531 78.79723 1.535952 0.137843 0.0038107 0 0 1
0.9600273 -0.0191146 -0.1585241 78 157 32 1.26058e-38 -0.5726491 0.6977097 0.4304349 0.04050561 0 0 0 0 81.83105 16.00249 0 0.3643644 0.349169 0 0 0.07503065 9.880456 78.58253 9.992395 0.01669366 0 0 0 0 0 24.93995 72.41767 0.7797818 0.3983245 0.01136359 0 0 1
0.9616221 -0.01681985 -0.1595167 2658 158 32 1.26058e-38 -0.530507 0.7335938 0.4247381 0.04396953 0 0 0 0 81.22488 16.17822 0 0.671455 0.4287129 0 0 0.1131195 10.78663 77.81292 9.775007 0.01558345 0 0 0 0 0 26.26042 70.80663 0.7114418 0.7139237 0.01081715 0 0 1
0.9632375 -0.01478122 -0.1606003 2686 159 32 1.26058e-38 -0.5104041 0.7468247 0.4263104 0.04992981 0 0 0 0 79.1012 17.58671 0 0.8327766 0.9473308 0 0 0.1362316 10.37987 77.727 10.15938 0.06550542 0 0 0 0 0 27.57986 68.82785 1.158283 0.8895728 0.01241669 0 0 1
0.9644672 -0.01300027 -0.1617048 2685 160 32 1.26058e-38 -0.4488446 0.7964875 0.4051497 0.05566806 0 0 0 0.04306504 79.02229 17.2691 0 1.146544 0.9468075 0 0 0.2142655 10.02715 77.71927 10.36231 0.104794 0 0 0 0 0 26.19994 69.74398 1.161056 1.30516 0.01767997 0 0 1
0.9905513 -0.006085311 -0.1646179 2715 161 32 1.26058e-38 -0.0305216 0.978747 0.2027877 0.04362101 0 0 0 13.56125 12.67907 7.701269 0 1.757597 59.0846 0 0.1384106 0.555836 3.777509 58.03997 31.73996 0.5321227 0 0 0 0 0 8.524427 15.92245 42.37329 26.94773 1.01589 0 0 4
0.9913756 -0.005685851 -0.1664976 2688 162 32 1.26058e-38 -0.07101641 -0.9902996 -0.1194292 0.04217389 0 0 0 1.603658 27.04345 38.78115 0 2.118827 25.2905 0 0.1214784 0.7932526 41.0127 45.29973 6.875923 0.7345092 0 0 0 0 0 30.96025 42.67136 17.62028 2.098737 1.486968 0 0 2
0.9859832 -0.1421555 -0.1705941 2963 128 33 1.26058e-38 -0.3592004 -0.9329498 -0.02407568 0.01827189 0 0 0 0.08261885 78.49498 16.41329 1.108656 0 0.08261885 0 0 0.3568072 11.01325 75.69595 8.593346 0.4401927 0.08261885 0 0 0 1.164587 8.543186 71.68374 13.68789 1.102749 0 0 0 1
0.9772049 -0.1360901 -0.1689014 3132 129 33 1.26058e-38 -0.5639648 -0.825566 -0.0196097 0.02318099 0 0 0 0 83.91158 12.20517 0.8681944 0 0 0.02203678 0.08406246 0.3298423 12.29901 76.72153 7.278102 0.2503575 0 0 0 0 0.8678169 8.469311 71.26638 16.03809 0.343352 0 0 0 1
0.9663516 -0.1284455 -0.1668433 3249 130 33 1.26058e-38 -0.6268232 -0.7752169 0.07830279 0.03942314 0 0 0 0.01133158 93.02059 4.452317 0.2159609 0 0 0.05580125 0.09383494 0.2475133 19.49174 66.94489 10.52667 0.3397135 0 0 0 0 0.1582536 3.865107 71.84401 21.29939 0.5334271 0 0 0 1
0.9635546 -0.1263093 -0.166058 3266 131 33 1.26058e-38 -0.6196763 -0.7765067 0.1141873 0.04494361 0 0 0 0.01120237 95.67287 2.017942 0.1058354 0 0 0.03118638 0.05963622 0.155335 19.93819 64.81484 12.60738 0.2012752 0 0 0 0 0.06499227 2.954652 74.25064 20.12939 0.408165 0 0 0 1
0.9621732 -0.1250631 -0.1653699 3247 132 33 1.26058e-38 -0.6240948 -0.7666135 0.1510277 0.04672253 0 0 0 0.01273991 94.50964 3.185877 0.1116707 0 0.003450615 0.03478125 0.07499635 0.1803976 19.91185 67.29769 10.09219 0.2314602 0 0 0 0 0.06537841 2.955124 75.53581 18.75821 0.5088596 0 0 0 1
0.9461321 -0.1127591 -0.1627906 3261 133 33 1.26058e-38 -0.55194 -0.7678409 0.3252424 0.03797681 0 0 0 0.04495172 88.37337 9.523005 0.1431247 0 0.08058514 0.01328682 0.4873154 2.460564 12.67137 69.18066 12.91344 0.4383888 0 0 0 0 0.5148906 9.222312 65.65971 20.12655 2.614005 0.01837808 0.00918904 0 1
0.9362301 -0.1053169 -0.1610478 3257 134 33 1.26058e-38 -0.5650567 -0.7591215 0.3231802 0.05910997 0 0 0 0.02160901 69.24139 28.08597 1.094907 0 0.06850383 0.01797642 0.7557251 5.294601 11.91868 62.24325 17.16812 1.053156 0.060853 0 0 0.05169323 3.178535 25.37734 58.26488 10.09518 1.529682 0.01504456 0 0 2
0.9320018 -0.1009295 -0.1600036 3257 135 33 1.26058e-38 -0.610617 -0.7429624 0.2741417 0.05934824 0 0 0 0.01565737 60.80021 35.90432 1.774238 0.08685905 0.03365082 0.07776187 0.6522346 4.452628 14.30341 58.34032 18.77173 1.859755 0.1570912 0 0 0.09643289 4.892395 29.21426 54.86553 8.41808 0.9924905 0.1228177 0.01293189 0 2
0.9226931 -0.09088345 -0.159775 3947 136 33 1.26058e-38 -0.7018963 -0.6054126 0.3752562 0.06538832 0 0 0 0 39.6024 54.07689 5.217021 0 0 0 0.06750587 2.180486 21.62281 50.05386 20.68967 4.204571 0.07740548 0 0 0.3430033 10.98296 36.30058 44.08871 5.942822 1.081095 0.1298816 0.02724599 0 1
0.921747 -0.08904985 -0.1590451 4424 137 33 1.26058e-38 -0.733041 -0.555926 0.3919148 0.07216073 0 0 0 0.001483109 38.96148 55.01097 4.929959 0 0 0 0.05227534 2.255713 22.08512 48.6879 21.54431 4.213587 0.06498441 0 0 0.2951194 12.2416 36.50016 42.29033 6.280621 1.117342 0.1486612 0.03005557 0 1
0.9208006 -0.08696155 -0.1582782 4476 138 33 1.26058e-38 -0.776509 -0.4690315 0.4207651 0.100285 0 0 0 0.001860176 37.96434 56.64107 4.316012 0 0 0 0.05243247 2.287425 22.15207 47.75291 22.14973 4.454741 0.07394934 0 0 0.3541225 10.14375 37.77078 42.09044 6.85405 1.442625 0.2184595 0.0490305 0 1
0.9180213 -0.08266183 -0.1577955 4622 139 33 1.26058e-38 -0.8209333 -0.3588013 0.4442186 0.103555 0 0 0 0.001741372 35.86948 61.48265 1.606061 0 0 0 0.03787393 1.49251 23.29023 48.04305 22.26719 3.764512 0.06453398 0 0 0.05883783 7.741736 40.07322 39.77061 9.466535 1.474788 0.2741847 0.0999896 0 1
0.918349 -0.08112472 -0.1564319 4633 140 33 1.26058e-38 -0.8625669 -0.2548467 0.4370715 0.1326244 0 0 0 0.004934092 36.46163 60.30077 2.194247 0 0 0 0.03314058 1.322455 25.03375 46.0181 21.84853 4.638838 0.06675737 0 0 0.04267768 8.510148 40.00542 40.75804 8.124358 1.249581 0.1965803 0.07477998 0 1
0.9175475 -0.07728649 -0.1557361 4582 141 33 1.26058e-38 -0.8860477 -0.1027808 0.4520572 0.1407198 0 0 0 0.006020484 37.78577 60.10525 1.06759 0 0 0 0.034755 1.213194 24.4472 48.20726 22.2378 2.769038 0.05538268 0 0 0.03191893 5.383924 35.33981 46.54049 9.674201 1.746586 0.1779497 0.06976103 0 1
0.9167659 -0.07270686 -0.1558971 4530 142 33 1.26058e-38 -0.9056146 0.07149476 0.418032 0.1428277 0 0 0 0.0017758 39.82023 58.48549 0.6628262 0 0 0 0.02156856 0.8834494 23.9824 50.81768 21.72927 1.513806 0.02211924 0 0 0.02505448 3.689593 30.60117 51.97361 10.82495 1.702865 0.1127807 0.04028335 0 1
0.9166214 -0.06887693 -0.1568322 4541 143 33 1.26058e-38 -0.9140478 0.2283229 0.3352392 0.1216934 0 0 0 0 44.09523 54.1193 0.7651345 0 0 0 0.02318199 1.138479 23.89946 51.0452 21.66145 1.204086 0.007824405 0 0 0.03163691 4.413982 27.9817 51.38858 13.22326 1.811424 0.0976864 0.03140468 0 1
0.9191303 -0.06487463 -0.1569837 4478 144 33 1.26058e-38 -0.8857223 0.3706919 0.2794343 0.1367717 0 0 0 0 50.16336 47.87635 0.9506427 0 0 0 0.02028212 0.8460625 23.97862 53.04304 20.4211 0.6812549 0 0 0 0.02986574 5.512135 23.99583 52.46146 15.26598 1.627495 0.07143065 0.02616617 0 2
0.9205784 -0.06150317 -0.1573626 4347 145 33 1.26058e-38 -0.8537571 0.4414943 0.27601 0.1303243 0 0 0 0 54.68797 43.52113 0.784917 0 0 0 0.01946761 0.7041662 24.64802 52.79483 20.35641 0.4711349 0 0 0 0.02351603 5.412679 22.47919 52.69968 16.46548 1.827503 0.06166391 0.02433558 0 2
0.9243475 -0.05631842 -0.1574991 3879 146 33 1.26058e-38 -0.8138248 0.5048622 0.2877555 0.1309538 0 0 0 0 63.37419 35.10796 0.5130345 0 0 0 0.01430906 0.3624888 24.72611 53.97175 19.71311 0.2074428 0 0 0 0.01355971 3.909177 20.00882 55.51771 17.71909 1.768406 0.03286638 0.02557418 0 2
0.926672 -0.05303017 -0.1580609 3437 147 33 1.26058e-38 -0.7895448 0.5394099 0.2926702 0.1165373 0 0 0 0 69.15104 29.51596 0.3279105 0 0 0 0.004778568 0.2560838 23.09248 56.75893 18.77926 0.1033894 0 0 0 0.01031927 2.522479 17.31692 61.18279 16.38843 1.519573 0.03049071 0.02389964 0 2
0.929109 -0.04951142 -0.1584764 3259 148 33 1.26058e-38 -0.7891984 0.5422058 0.2884075 0.1136978 0 0 0 0 74.89973 23.94191 0.1513674 0 0 0 0 0.1173814 20.98695 59.60851 18.26259 0.01757558 0 0 0 0.006214839 1.077775 15.28159 67.63634 14.13833 0.8226302 0.01346492 0.01664321 0 2
0.9304575 -0.04747956 -0.1593374 3210 149 33 1.26058e-38 -0.7735177 0.577169 0.2618136 0.1006216 0 0 0 0 77.60349 21.28256 0.1065411 0 0 0 0 0.08132923 19.82351 61.3813 17.69706 0.009407675 0 0 0 0.005037509 0.7556348 13.60496 70.37815 13.60634 0.6154104 0.01218366 0.01487429 0 2
0.9320157 -0.04459113 -0.1598824 3252 150 33 1.26058e-38 -0.7517914 0.5895799 0.2953053 0.08804836 0 0 0 0 79.89449 19.01208 0.0826594 0 0 0 0 0.05706269 18.80375 62.67536 17.44912 0.003912273 0 0 0 0.004525978 0.5487382 13.81839 71.48616 12.5955 0.5098295 0.01067025 0.01544599 0 2
0.9337322 -0.04195849 -0.1604899 3252 151 33 1.26058e-38 -0.7346251 0.6195959 0.2764542 0.07773933 0 0 0 0 81.66555 17.26591 0.05136185 0 0 0 0 0.02190051 17.47625 65.32864 16.15604 0 0 0 0 0 0.3983839 13.17881 72.93838 11.97742 0.4627879 0.01096812 0.01603903 0 1
0.9372671 -0.03715676 -0.1608175 3247 152 33 1.26058e-38 -0.7087739 0.6317851 0.3138266 0.0642669 0 0 0 0 84.31714 14.62833 0.02026208 0 0 0 0 0.008753401 15.04298 68.50805 15.40592 0 0 0 0 0 0.1964272 13.96288 75.32653 9.253245 0.2171816 0.003187668 0.006257156 0 1
0.9406982 -0.03375635 -0.1615226 3249 153 33 1.26058e-38 -0.6940197 0.6488499 0.3119783 0.05178098 0 0 0 0 86.09924 12.80883 0.006264867 0.02815579 0 0 0 0.004314784 13.33524 71.64307 13.95988 0 0 0 0 0 0.05699507 14.70576 77.51058 6.58052 0.08863986 0 0 0 1
0.9470748 -0.02834667 -0.1620447 3132 154 33 1.26058e-38 -0.6650743 0.6602827 0.3488593 0.04019711 0 0 0 0 86.07913 12.61503 0 0.12552 0.05130693 0 0 0.01287145 10.89833 75.29149 12.65519 0.01313089 0 0 0 0 0.005376796 16.76848 79.13398 2.831847 0.1265525 0.004777658 0 0 1
0.9531061 -0.02320811 -0.1624863 4723 155 33 1.26058e-38 -0.624358 0.6838185 0.3775835 0.03934629 0 0 0 0 85.42191 12.95438 0 0.2397674 0.130461 0 0 0.02675023 9.512702 77.12093 12.06996 0.01615227 0 0 0 0 0 19.27906 77.96622 1.244793 0.2507283 0.005707197 0 0 1
0.9548465 -0.02090357 -0.1633914 683 156 33 1.26058e-38 -0.6361006 0.6762092 0.3716413 0.04249479 0 0 0 0 84.57242 13.60536 0 0.33889 0.1753031 0 0 0.09144127 8.804942 77.64386 12.12588 0.02583225 0 0 0 0 0 20.74375 76.62488 0.969679 0.3477569 0.005929016 0 0 1
0.9570535 -0.01782323 -0.1641063 2587 157 33 1.26058e-38 -0.5962545 0.7119744 0.3709085 0.04580266 0 0 0 0 83.17803 14.40296 0 0.7755579 0.2488342 0 0 0.1667108 8.108155 78.48298 11.81584 0.03166838 0 0 0 0 0 22.11468 74.90176 0.7978561 0.7849926 0.006047205 0 0 1
0.9587544 -0.01554977 -0.1649932 2678 158 33 1.26058e-38 -0.556404 0.7520671 0.353284 0.05235824 0 0 0 0 83.94669 13.21135 0 1.011644 0.3667283 0 0 0.1711603 7.350257 80.04457 10.90131 0.06914183 0 0 0 0 0 22.78794 73.56136 1.148148 1.028787 0.01018202 0 0 1
0.9600049 -0.01415743 -0.1659231 2678 159 33 1.26058e-38 -0.5572575 0.7694759 0.3120431 0.05560696 0 0 0 0 80.60013 16.06093 0 1.279966 0.5740139 0 0 0.2283165 7.238647 79.21265 11.74556 0.08988233 0 0 0 0 0 24.2622 71.99619 0.946426 1.298789 0.01146032 0 0 1
0.9621659 -0.01168842 -0.1666791 2708 160 33 1.26058e-38 -0.5225242 0.7979742 0.3003427 0.06820617 0 0 0 0.0447479 79.43708 16.47466 0 1.440834 1.068019 0 0 0.4392439 9.298608 77.95628 10.59921 0.1719815 0 0 0 0 0 24.83214 70.59006 1.421535 1.601875 0.0197269 0 0 1
0.9963438 -0.007545952 -0.1728813 2717 161 33 1.26058e-38 -0.4120935 -0.8727896 0.261567 0.03331485 0 0 0 6.797199 17.60126 20.26293 0 5.549067 45.01837 0 0.5201906 1.450266 18.4257 51.74542 20.09913 2.812509 0.1756082 0 0 0 0 18.97679 25.21843 33.12143 17.3861 0.5260658 0 0 4
0.9919633 -0.1448769 -0.1782885 2951 128 34 1.26058e-38 -0.3844549 -0.9218001 -0.04978921 0.01849209 0 0 0 0.6795416 78.93318 14.83587 0.3874726 0 0.8118694 0 0 0.1621751 11.11228 73.14964 10.01307 0.3988886 0.4683589 0.3435106 0 0 0.3874726 9.845728 68.45193 14.23641 2.594066 0 0.1323278 0 1
0.9760362 -0.134678 -0.1745868 3116 129 34 1.26058e-38 -0.5761132 -0.8166121 -0.03519052 0.01866296 0 0 0 0 87.44199 9.131832 0.3579959 0 0 0 0.04207159 0.201341 11.40118 75.41453 9.726768 0.1459376 0 0 0 0 0.3273123 7.181197 75.27493 13.77276 0.3756159 0 0 0 1
0.9596506 -0.1237067 -0.1712356 3155 130 34 1.26058e-38 -0.5741391 -0.8165047 0.06069966 0.03667157 0 0 0 0 97.65412 0.198844 0.009041295 0 0 0 0.004764366 0.01586479 26.92045 61.85328 9.052872 0.01476396 0 0 0 0 0.004677569 0.2333316 86.47139 11.09642 0.05620988 0 0 0 1
0.959106 -0.1234054 -0.171257 3246 131 34 1.26058e-38 -0.5890545 -0.8047074 0.07389734 0.03919033 0 0 0 0 97.66516 0.1879776 0.008627742 0 0 0 0.004607318 0.01553406 25.02095 63.51953 9.286681 0.01438425 0 0 0 0 0.004421942 0.2225322 84.64646 12.93094 0.05737449 0 0 0 1
0.9570274 -0.1220048 -0.170848 3371 132 34 1.26058e-38 -0.5703918 -0.8177069 0.0775146 0.04019109 0 0 0 0 96.44434 1.346324 0.0562605 0 0 0 0.04417227 0.1685454 22.50051 66.03088 9.000529 0.102264 0 0 0 0 0.01939449 1.638843 81.57899 14.08385 0.5258532 0 0 0 1
0.9504311 -0.1178172 -0.1691896 3246 133 34 1.26058e-38 -0.557094 -0.8173508 0.1469145 0.04760025 0 0 0 0 94.46841 3.435538 0.05503573 0 0.009435483 0 0.1505539 0.7108449 14.53712 70.98531 11.40045 0.1841424 0 0 0 0 0.07975751 4.890415 75.07935 16.04856 1.870347 0 0 0 1
0.9468291 -0.115295 -0.1680025 3409 134 34 1.26058e-38 -0.5650617 -0.8032503 0.1883994 0.03992499 0 0 0 0.01547252 92.45977 5.40747 0.1004602 0 0.02532255 0.007736261 0.2217765 1.127199 13.79336 70.90995 11.71237 0.2360637 0 0 0 0 0.2941946 6.093541 74.82459 14.43038 2.36578 0 0 0 1
0.924722 -0.09605608 -0.1651459 3409 135 34 1.26058e-38 -0.6772281 -0.6828843 0.2739182 0.0745083 0 0 0 0 48.37587 45.94403 4.474043 0 0 0 0.1042124 1.829669 18.13073 57.59691 17.36884 3.61044 0.1531541 0 0 0.1927639 8.346713 31.51127 51.32806 6.314751 0.968496 0.1056912 0.02621907 0 1
0.9222142 -0.09252728 -0.1643565 4470 136 34 1.26058e-38 -0.728516 -0.6274396 0.2749256 0.07570306 0 0 0 0 42.62313 50.87977 5.369038 0 0 0 0.05916508 1.354377 21.67833 52.81891 18.2501 4.611382 0.09964477 0 0 0.1874785 10.75076 33.61332 45.90233 6.974804 1.300269 0.1184752 0.02449766 0 1
0.9214559 -0.09039686 -0.1638726 4792 137 34 1.26058e-38 -0.7685601 -0.571254 0.2880699 0.09399575 0 0 0 0 40.33819 53.43792 5.136893 0 0 0 0.02207846 0.6811979 23.07358 53.89855 16.23236 4.964747 0.04048019 0 0 0.08559574 11.83956 35.38739 42.42334 7.834224 1.243347 0.08559994 0.0139269 0 1
0.9215853 -0.0896625 -0.163267 4621 138 34 1.26058e-38 -0.791679 -0.5403044 0.285159 0.1142092 0 0 0 0 39.87101 51.97549 7.050862 0 0 0 0.02313576 0.7959927 24.20436 50.39607 18.248 5.190467 0.03934487 0 0 0.09898592 13.26393 33.26762 44.46159 6.266894 1.414484 0.1083499 0.01553107 0 1
0.9198731 -0.08680546 -0.1625859 4587 139 34 1.26058e-38 -0.8564411 -0.4198629 0.3003728 0.1425629 0 0 0 0 34.11979 63.02391 1.803452 0 0 0 0.0215556 3.203125 17.80386 42.04171 29.10917 6.727118 0.04059831 0 0 0.07520783 6.016873 41.63827 32.29765 11.46183 6.10947 1.313329 0.03451558 0 1
0.9199494 -0.08598207 -0.1632191 4749 140 34 1.26058e-38 -0.9639593 -0.2202624 0.1492211 0.1450303 0 0 0 0 35.04604 61.04955 2.841228 0 0 0 0.02268263 0.7258513 22.34892 52.58398 16.92137 6.289729 0.0442929 0 0 0.06332804 10.18322 37.75941 38.66655 9.548957 2.574885 0.0961914 0.04423882 0 1
0.9187281 -0.07996091 -0.1627243 4537 141 34 1.26058e-38 -0.9838936 -0.0283174 0.1764982 0.1490608 0 0 0 0 41.21704 55.63212 2.104561 0 0 0 0.0489424 1.968318 22.86679 47.50592 22.51201 3.952242 0.09948416 0 0 0.09045108 6.802569 33.11983 42.67965 13.33959 2.650082 0.2300707 0.04146237 0 1
0.9150675 -0.07234529 -0.1619436 4528 142 34 1.26058e-38 -0.9540755 0.157319 0.2549329 0.1467711 0 0 0 0 46.55038 51.20377 1.223355 0 0 0 0.04769208 2.258473 22.4268 48.32459 23.87919 1.985801 0.05495193 0 0 0.05823806 5.772552 26.99989 45.08359 17.6366 3.081156 0.2553052 0.09017561 0 1
0.9163143 -0.06864478 -0.162275 4528 143 34 1.26058e-38 -0.9254321 0.3232196 0.1977486 0.1411531 0 0 0 0 48.33729 49.01707 1.633077 0 0 0 0.04320678 2.18349 22.01204 49.79916 23.43463 1.490279 0.02461484 0 0 0.07996655 6.181774 25.77334 46.38773 17.40694 2.964568 0.1489272 0.04420923 0 1
0.9179905 -0.06537833 -0.1626337 4407 144 34 1.26058e-38 -0.8895802 0.4363934 0.1349367 0.1374848 0 0 0 0 54.25832 42.78553 1.949592 0 0 0 0.03277471 1.564659 23.93452 49.64443 23.03542 0.7795373 0.002115862 0 0 0.0819136 8.307979 21.09092 48.47965 18.3806 2.54224 0.0874329 0.02269387 0 2
0.9184386 -0.06324295 -0.162617 4042 145 34 1.26058e-38 -0.860302 0.4918935 0.1338705 0.1140265 0 0 0 0 55.82442 41.18633 1.984569 0 0 0 0.0291409 1.838958 22.67623 51.37825 22.48076 0.591978 0 0 0 0.06287053 8.596616 20.43533 47.59553 19.50258 2.71366 0.07139028 0.0173023 0 2
0.9198164 -0.06050796 -0.1624545 3569 146 34 1.26058e-38 -0.8240094 0.5584533 0.09559547 0.0963036 0 0 0 0 58.92493 38.50153 1.569862 0 0 0 0.02925971 0.9489616 24.90301 51.42226 21.17191 0.5209075 0 0 0 0.04495061 6.907473 19.59808 49.89736 19.67961 2.7859 0.06769234 0.01524431 0 2
0.9211501 -0.05748021 -0.1628126 3311 147 34 1.26058e-38 -0.8088233 0.5791398 0.1019902 0.07819223 0 0 0 0 62.78828 34.97124 1.237721 0 0 0 0.02696749 0.9818283 25.05932 52.6406 19.89238 0.39612 0 0 0 0.0306763 5.776189 18.16143 51.23159 20.67032 3.054621 0.05996379 0.01242375 0 2
0.922792 -0.05478866 -0.1627696 3303 148 34 1.26058e-38 -0.7981916 0.5965868 0.08351265 0.06004637 0 0 0 0 65.90922 32.39384 0.6948272 0 0 0 0.02303901 0.6164556 24.48003 54.06073 19.52055 0.2970994 0 0 0 0.02270715 3.921813 17.69106 54.46033 20.17662 2.67147 0.04526719 0.008597805 0 2
0.9270014 -0.05011658 -0.1635419 3322 149 34 1.26058e-38 -0.8096913 0.5839965 0.05786363 0.07430408 0 0 0 0 75.2412 23.4186 0.3369356 0 0 0 0.01491047 0.2759434 21.93436 58.93902 17.73971 0.09281842 0 0 0 0.01051742 1.575601 14.22299 61.66816 19.93303 1.552625 0.02893549 0.004894524 0 2
0.9286606 -0.04709569 -0.164451 3283 150 34 1.26058e-38 -0.7835394 0.6124142 0.1049518 0.06567688 0 0 0 0 77.68201 21.11483 0.199381 0 0 0 0.004686921 0.1891324 20.59752 61.04804 17.10825 0.04856831 0 0 0 0.007755544 1.229788 12.84643 64.85014 18.92017 1.114897 0.02466375 0.002381703 0 2
0.9329165 -0.04123916 -0.1657142 3283 151 34 1.26058e-38 -0.7908626 0.600886 0.1160712 0.07821533 0 0 0 0 84.4967 14.42245 0.07262106 0 0 0 0 0.0499259 17.75605 65.16412 16.01927 0.002426164 0 0 0 0.004432009 0.3919139 10.87048 70.40224 16.71153 0.5973291 0.0138535 0 0 1
0.9344274 -0.0384553 -0.1660488 3288 152 34 1.26058e-38 -0.7692474 0.6262684 0.1266745 0.07394127 0 0 0 0 85.62614 13.32621 0.03301838 0 0 0 0 0.01494507 16.89505 66.91765 15.15774 0 0 0 0 0 0.2366255 10.4886 72.53207 15.22087 0.494312 0.01292123 0 0 1
0.9390828 -0.03202289 -0.1671011 3275 153 34 1.26058e-38 -0.7665132 0.6172774 0.177274 0.05639386 0 0 0 0 88.16574 10.72678 0.006245659 0.0527468 0 0 0 0.007882714 14.31627 70.23402 14.38497 0.008386146 0 0 0 0 0.04086567 12.43762 77.25497 8.998067 0.2155408 0.004460522 0 0 1
0.9450696 -0.0268776 -0.1681067 3439 154 34 1.26058e-38 -0.7201835 0.6604993 0.2123121 0.04731986 0 0 0 0 88.09702 10.60814 0 0.164993 0.0246518 0 0 0.027688 11.67702 73.87827 13.28451 0.02732509 0 0 0 0 0.005518876 15.48929 78.77552 4.450747 0.1659882 0.007738849 0 0 1
0.9496869 -0.02313076 -0.1689064 2743 155 34 1.26058e-38 -0.6883806 0.6850176 0.2385018 0.03987075 0 0 0 0 87.14688 11.2941 0 0.2672245 0.1085223 0 0 0.1046388 9.786929 75.93513 12.93654 0.05351079 0 0 0 0 0 18.0605 78.4971 1.999147 0.2498234 0.01016483 0 0 1
0.9518173 -0.02086346 -0.1694377 742 156 34 1.26058e-38 -0.6788684 0.6908033 0.2488545 0.03778673 0 0 0 0 86.46499 11.76909 0 0.3772097 0.1574623 0 0 0.1784095 9.811846 76.01177 12.70414 0.06261979 0 0 0 0 0 19.13995 77.49688 1.761256 0.3589849 0.011756 0 0 1
0.9542588 -0.01822074 -0.1700312 2630 157 34 1.26058e-38 -0.684332 0.6785924 0.2668371 0.04089133 0 0 0 0 85.24852 12.43412 0 0.8189263 0.2044129 0 0 0.2702886 8.355952 78.60542 11.39983 0.07447679 0 0 0 0 0 21.27198 75.56528 1.055958 0.7988254 0.0139294 0 0 1
0.9560715 -0.01580762 -0.170641 2732 158 34 1.26058e-38 -0.6400018 0.7220536 0.2627473 0.04448063 0 0 0 0 84.72615 12.22322 0 1.392757 0.2981855 0 0 0.6115778 8.71336 77.97429 11.21816 0.1229336 0 0 0 0 0 21.41706 74.97626 0.85338 1.38097 0.01263462 0 0 1
0.9574331 -0.01417507 -0.1713638 2706 159 34 1.26058e-38 -0.6278292 0.7342192 0.2583655 0.04856075 0 0 0 0 83.37331 13.36957 0 1.428952 0.4439049 0 0 0.2919466 8.499334 78.93411 10.65139 0.2266902 0.01228276 0 0 0 0 22.42599 73.81213 1.000803 1.356347 0.0204885 0 0 1
0.9606245 -0.01086584 -0.172135 2726 160 34 1.26058e-38 -0.5221621 0.8171968 0.2440004 0.05787711 0 0 0 0 76.69614 18.68598 0 1.843602 1.289741 0 0 0.9740755 10.59591 75.23309 11.22973 0.456893 0.02572648 0 0 0 0 25.06757 69.75249 1.854805 1.799066 0.04149339 0 0 2
0.9656135 -0.007926947 -0.1732846 2743 161 34 1.26058e-38 -0.3869051 0.8989054 0.2056054 0.05884836 0 0 0 0.0993868 66.05829 26.54795 0 2.36942 3.238846 0 0 1.918101 14.08795 67.62116 13.69913 0.9354116 0.05213273 0 0 0 0 31.84444 60.57648 3.535851 2.294332 0.06276413 0 0 2
1.017686 -0.1505936 -0.1903899 2931 128 35 1.26058e-38 -0.6496471 -0.7499489 -0.1246408 0.01225478 0 0 0 0.9193206 64.90817 0.2290605 0 2.661508 16.09955 0 0 0.4435846 31.41989 30.02212 6.832463 0 2.103433 13.99611 0 0 0 0.2290605 53.92357 24.38256 2.880374 0 3.402035 0 2
0.9831437 -0.1387855 -0.1829517 3045 129 35 1.26058e-38 -0.5061308 -0.8581283 -0.08629869 0.02129086 0 0 0 0.1524216 87.42244 8.244598 0.2749237 0 0.2475573 0 0 0 9.266352 76.52029 10.16377 0.1439907 0.2475573 0 0 0 0.2749237 6.492197 69.93591 17.68761 1.856177 0 0.09513562 0 1
0.9714667 -0.1305324 -0.1801648 3160 130 35 1.26058e-38 -0.563538 -0.8224509 -0.07745594 0.0269596 0 0 0 0 89.0592 8.059005 0.03910632 0 0 0 0.004241201 0.009992362 7.310124 83.18548 6.638636 0.008843888 0 0 0 0 0.03026243 5.594211 83.78402 7.670401 0.07838677 0 0 0 1
0.9701434 -0.1297451 -0.1805138 3163 131 35 1.26058e-38 -0.5663304 -0.821026 -0.07201466 0.02763198 0 0 0 0 88.94532 8.180656 0.02354729 0 0 0 0.002764033 0.006448507 7.804471 82.02136 7.308739 0.00574489 0 0 0 0 0.0178024 5.598331 84.50665 6.978467 0.04827967 0 0 0 1
0.9689283 -0.1289193 -0.1808753 3117 132 35 1.26058e-38 -0.5533129 -0.8293971 -0.07710531 0.0282056 0 0 0 0 89.18837 7.928445 0.0321464 0 0 0 0.004048929 0.00934707 6.998894 83.98153 6.146764 0.008386197 0 0 0 0 0.02376021 5.517653 83.97142 7.575684 0.06045794 0 0 0 1
0.9373423 -0.1087456 -0.1728291 3316 133 35 1.26058e-38 -0.6391712 -0.7641187 0.08707877 0.04650261 0 0 0 0 82.38727 14.69596 1.156655 0 0 0 0.1591571 1.491051 8.186914 77.0778 10.50413 0.745577 0.07525007 0 0 0.09128946 1.952503 12.05705 77.47667 6.047963 0.6144124 0 0 0 1
0.9289598 -0.1009904 -0.1712053 3397 134 35 1.26058e-38 -0.6326902 -0.7650682 0.1198903 0.05973344 0 0 0 0 60.73486 34.60603 3.265466 0 0 0 0.1229594 1.785648 12.36597 67.31607 14.14389 2.663933 0.207866 0 0 0.1636357 5.389915 25.00142 61.99468 5.474316 0.5134869 0.0513485 0.01756649 0 2
0.9252027 -0.09761024 -0.1704244 3397 135 35 1.26058e-38 -0.6735241 -0.7248727 0.1446542 0.06068661 0 0 0 0 53.61728 40.27436 4.839544 0 0 0 0.05528898 1.054976 14.38978 66.20963 14.3065 2.564923 0.1501137 0 0 0.1345231 6.455065 28.98016 58.0877 4.482549 0.5215998 0.05520847 0.01437112 0 1
0.9240612 -0.09606077 -0.1700834 4339 136 35 1.26058e-38 -0.7214367 -0.6749524 0.1548166 0.07838172 0 0 0 0 52.16566 42.85942 3.722378 0 0 0 0.05704782 1.064101 14.5418 64.63859 14.72431 3.554268 0.1673592 0 0 0.1959984 6.723798 30.52801 55.59469 5.010211 0.6157683 0.06324589 0.01574727 0 1
0.9215257 -0.09313535 -0.1695149 4677 137 35 1.26058e-38 -0.7706487 -0.6149257 0.1672336 0.1021995 0 0 0 0 47.36929 46.78628 4.676791 0 0 0 0.07892819 1.837631 18.31975 56.34703 17.79422 4.117212 0.337604 0 0 0.1185943 8.268521 31.01559 50.13096 7.849318 1.280425 0.1362166 0.03273904 0 1
0.9156459 -0.08674017 -0.1682778 4493 138 35 1.26058e-38 -0.8657038 -0.449992 0.2192354 0.121603 0 0 0 0 42.75042 53.06086 3.103878 0 0 0 0.1010884 2.844775 21.04682 47.16414 22.40724 5.030623 0.3204834 0 0 0.1462421 6.789958 29.81929 44.14174 14.62362 2.884319 0.3946952 0.1153162 0 1
0.9089182 -0.08060925 -0.1669063 4505 139 35 1.26058e-38 -0.9615269 -0.1487834 0.230932 0.105107 0 0 0 0 41.60858 56.04578 1.290074 0 0 0 0.06235899 2.56931 23.32634 42.56533 26.21525 4.06261 0.143235 0 0 0.06156686 3.405547 22.53996 42.27194 24.52079 5.357586 0.5241919 0.2628277 0 1
0.9095881 -0.07748787 -0.1668186 4456 140 35 1.26058e-38 -0.979872 -0.01721326 0.1988833 0.1113146 0 0 0 0 42.04477 55.93795 0.9669343 0 0 0 0.0584239 2.604351 23.2387 42.61042 26.8425 3.502199 0.09303048 0 0 0.04737542 2.722029 23.1151 41.24883 25.4172 5.389579 0.8031371 0.2063892 0 1
0.9103825 -0.07490093 -0.1669928 4512 141 35 1.26058e-38 -0.9758761 0.1044008 0.1917454 0.1107564 0 0 0 0 43.37584 54.5631 1.018739 0 0 0 0.07050663 2.718143 22.67329 43.26544 26.93912 3.209231 0.08193067 0 0 0.05154771 3.051226 22.9962 42.03233 24.68131 5.406827 0.4232334 0.3149969 0 1
0.9125885 -0.07216669 -0.1673944 4498 142 35 1.26058e-38 -0.9633667 0.2285712 0.1402849 0.1261432 0 0 0 0 47.88878 49.59429 1.490048 0 0 0 0.09932089 3.283556 21.32597 44.89879 26.57811 2.707571 0.0797854 0 0 0.07133316 5.056263 23.10935 42.60588 22.72043 4.860374 0.4473415 0.102148 0 1
0.9150552 -0.0693747 -0.1678464 4392 143 35 1.26058e-38 -0.9269417 0.3629729 0.09502557 0.1295042 0 0 0 0 50.85065 46.21165 1.92351 0 0 0 0.1173096 3.484124 21.39151 46.21194 25.45015 2.260412 0.07035227 0 0 0.1894249 5.365372 23.47476 42.47118 22.79259 4.377785 0.2574784 0.05720657 0 1
